ncols 191
nrows 103
xllcorner 5840
yllcorner 1420
cellsize 20
NODATA_value -9999
943 934 924 914 905 895 885 875 863 850 836 821 806 792 780 769 760 752 745 740 735 729 721 712 703 693 682 671 660 649 640 632 625 620 615 611 607 603 598 594 589 585 580 574 568 560 554 547 542 537 533 530 527 525 523 521 518 515 511 506 499 492 483 474 466 458 449 438 428 417 407 398 389 381 373 367 364 362 362 363 366 369 373 377 380 383 386 386 386 384 380 376 371 367 364 361 359 359 360 360 360 360 360 360 359 358 355 352 348 343 336 325 311 296 280 264 249 234 223 214 208 205 203 201 198 194 188 180 169 155 140 124 108 91 76 60 46 34 24 17 11 6 3 1 -9999 -9999 -9999 -9999 -9999 -9999 -9999 -9999 -9999 -9999 -9999 -9999 -9999 -9999 -9999 -9999 -9999 -9999 -9999 -9999 -9999 -9999 -9999 -9999 -9999 -9999 -9999 -9999 -9999 -9999 -9999 -9999 -9999 -9999 -9999 -9999 -9999 -9999 -9999 -9999 -9999 -9999 -9999 -9999 -9999 -9999 -9999
955 947 937 928 919 911 901 892 881 868 854 840 826 812 800 789 780 771 764 757 751 743 735 725 714 703 691 679 667 656 646 638 631 625 620 616 612 608 603 599 595 591 587 582 576 571 565 559 554 550 546 543 540 537 534 531 528 524 519 513 505 496 486 476 467 459 449 438 428 417 407 398 390 382 374 369 365 364 364 365 367 370 373 377 381 384 386 386 385 384 381 376 371 367 363 360 358 358 358 358 358 358 358 357 356 353 349 345 341 336 329 318 305 290 275 260 244 229 217 207 200 195 191 188 184 179 172 164 153 140 125 110 95 80 65 51 38 27 19 13 8 4 2 -9999 -9999 -9999 -9999 -9999 -9999 -9999 -9999 -9999 -9999 -9999 -9999 -9999 -9999 -9999 -9999 -9999 -9999 -9999 -9999 -9999 -9999 -9999 -9999 -9999 -9999 -9999 -9999 -9999 -9999 -9999 -9999 -9999 -9999 -9999 -9999 -9999 -9999 -9999 -9999 -9999 -9999 -9999 -9999 -9999 -9999 -9999 -9999
967 959 950 941 934 926 917 908 898 887 874 860 847 834 822 811 801 792 783 775 767 758 748 737 725 713 700 686 674 662 652 643 635 629 624 620 616 612 608 604 600 596 593 589 585 580 575 570 565 561 558 556 552 549 546 542 537 533 527 519 510 500 489 478 469 460 450 439 428 418 408 400 392 385 378 372 369 368 367 368 369 372 375 378 381 383 385 385 385 383 380 375 371 366 362 358 356 356 356 355 355 354 354 353 351 347 342 337 333 328 321 311 299 285 271 256 240 225 212 201 192 185 179 174 169 163 156 148 138 125 112 98 84 70 57 43 32 22 15 10 6 3 1 -9999 -9999 -9999 -9999 -9999 -9999 -9999 -9999 -9999 -9999 -9999 -9999 -9999 -9999 -9999 -9999 -9999 -9999 -9999 -9999 -9999 -9999 -9999 -9999 -9999 -9999 -9999 -9999 -9999 -9999 -9999 -9999 -9999 -9999 -9999 -9999 -9999 -9999 -9999 -9999 -9999 -9999 -9999 -9999 -9999 -9999 -9999 -9999
978 970 962 954 947 940 933 925 916 905 893 881 869 856 844 833 822 812 803 794 784 773 762 749 736 723 708 694 680 667 657 647 639 632 627 623 620 616 612 609 605 603 600 597 593 589 584 580 576 572 570 567 564 560 556 552 547 541 534 525 515 503 492 480 470 461 451 440 430 420 411 403 396 389 382 377 374 373 372 372 373 375 377 379 381 383 384 384 383 381 378 374 369 364 359 356 353 352 351 351 350 348 348 346 344 339 333 328 324 319 312 303 292 280 267 253 237 222 208 196 185 176 168 161 155 148 141 133 123 112 100 87 75 63 51 39 28 19 13 8 5 2 -9999 -9999 -9999 -9999 -9999 -9999 -9999 -9999 -9999 -9999 -9999 -9999 -9999 -9999 -9999 -9999 -9999 -9999 -9999 -9999 -9999 -9999 -9999 -9999 -9999 -9999 -9999 -9999 -9999 -9999 -9999 -9999 -9999 -9999 -9999 -9999 -9999 -9999 -9999 -9999 -9999 -9999 -9999 -9999 -9999 -9999 -9999 -9999 -9999
988 981 973 966 959 953 946 939 931 921 910 900 888 876 864 853 842 831 821 811 799 787 774 761 747 732 716 700 686 673 662 652 644 637 631 627 624 621 617 615 612 610 607 605 601 598 594 591 587 583 580 578 574 570 566 561 554 548 540 530 519 506 494 482 471 462 452 441 432 423 414 407 400 394 388 383 380 378 377 377 377 378 380 381 382 383 383 382 380 378 375 370 365 361 356 351 349 347 346 344 343 341 339 338 334 329 323 318 314 309 304 296 286 275 263 250 235 220 206 193 180 169 159 151 143 135 128 120 111 101 90 79 69 58 47 36 27 18 12 8 5 2 -9999 -9999 -9999 -9999 -9999 -9999 -9999 -9999 -9999 -9999 -9999 -9999 -9999 -9999 -9999 -9999 -9999 -9999 -9999 -9999 -9999 -9999 -9999 -9999 -9999 -9999 -9999 -9999 -9999 -9999 -9999 -9999 -9999 -9999 -9999 -9999 -9999 -9999 -9999 -9999 -9999 -9999 -9999 -9999 -9999 -9999 -9999 -9999 -9999
998 991 984 977 970 964 958 952 944 935 925 915 904 892 880 869 857 846 836 824 812 798 785 770 755 739 722 706 692 679 667 656 647 641 635 632 629 625 623 621 619 618 616 614 611 608 605 602 598 594 591 588 584 580 575 569 561 554 545 534 522 509 496 484 473 464 454 444 435 427 419 412 406 400 394 389 385 383 383 382 382 382 383 384 384 383 382 379 377 373 370 365 360 355 350 346 343 341 338 336 334 331 329 327 323 318 312 307 303 299 294 288 279 270 260 248 234 219 205 191 177 164 153 142 133 124 117 109 100 91 81 72 63 55 45 35 26 18 12 8 5 2 -9999 -9999 -9999 -9999 -9999 -9999 -9999 -9999 -9999 -9999 -9999 -9999 -9999 -9999 -9999 -9999 -9999 -9999 -9999 -9999 -9999 -9999 -9999 -9999 -9999 -9999 -9999 -9999 -9999 -9999 -9999 -9999 -9999 -9999 -9999 -9999 -9999 -9999 -9999 -9999 -9999 -9999 -9999 -9999 -9999 -9999 -9999 -9999 -9999
1008 1002 994 987 981 975 969 963 956 947 937 928 917 906 894 882 870 859 848 835 822 808 793 778 761 745 728 711 696 683 671 660 651 644 639 635 633 630 628 626 626 625 624 623 621 618 615 613 608 604 600 597 593 588 582 575 566 558 549 538 525 512 499 487 476 467 458 449 441 433 426 419 413 406 400 395 392 389 388 388 387 387 387 387 385 383 380 376 372 368 363 358 353 349 344 340 337 334 331 327 324 320 318 315 311 306 300 296 292 289 285 279 273 265 256 245 233 219 205 190 176 161 148 135 124 114 106 98 90 82 73 66 59 52 43 34 26 18 13 9 6 3 -9999 -9999 -9999 -9999 -9999 -9999 -9999 -9999 -9999 -9999 -9999 -9999 -9999 -9999 -9999 -9999 -9999 -9999 -9999 -9999 -9999 -9999 -9999 -9999 -9999 -9999 -9999 -9999 -9999 -9999 -9999 -9999 -9999 -9999 -9999 -9999 -9999 -9999 -9999 -9999 -9999 -9999 -9999 -9999 -9999 -9999 -9999 -9999 -9999
1017 1011 1004 997 990 984 978 972 965 956 947 938 927 915 903 891 878 867 856 843 829 815 800 784 768 751 734 717 701 688 675 664 654 647 642 638 635 632 631 631 631 631 631 631 630 628 626 623 619 614 609 606 600 595 588 580 571 562 553 541 527 514 502 490 480 471 462 454 446 439 433 426 420 414 408 403 399 396 395 394 393 392 391 389 385 382 377 372 366 361 356 350 345 341 336 333 330 326 322 318 313 309 306 303 298 293 288 283 281 278 275 271 266 259 252 243 232 219 205 190 175 159 144 130 117 106 97 89 81 73 65 59 53 48 40 32 25 18 13 9 6 3 -9999 -9999 -9999 -9999 -9999 -9999 -9999 -9999 -9999 -9999 -9999 -9999 -9999 -9999 -9999 -9999 -9999 -9999 -9999 -9999 -9999 -9999 -9999 -9999 -9999 -9999 -9999 -9999 -9999 -9999 -9999 -9999 -9999 -9999 -9999 -9999 -9999 -9999 -9999 -9999 -9999 -9999 -9999 -9999 -9999 -9999 -9999 -9999 -9999
1025 1019 1012 1005 998 992 986 980 973 964 955 945 934 922 910 897 884 873 861 849 835 821 806 790 774 757 740 722 707 692 679 667 657 650 644 640 637 635 634 634 635 637 638 639 638 637 635 632 627 622 617 612 607 600 592 584 575 566 556 543 530 518 506 495 484 475 467 460 453 447 440 434 428 423 417 412 407 404 401 400 397 395 393 389 384 379 373 366 359 353 347 341 336 332 328 324 321 317 313 307 302 297 293 290 285 280 275 271 269 268 266 264 260 255 249 241 232 220 206 191 175 158 142 126 112 100 89 81 73 64 57 52 47 43 36 29 22 16 12 8 5 2 -9999 -9999 -9999 -9999 -9999 -9999 -9999 -9999 -9999 -9999 -9999 -9999 -9999 -9999 -9999 -9999 -9999 -9999 -9999 -9999 -9999 -9999 -9999 -9999 -9999 -9999 -9999 -9999 -9999 -9999 -9999 -9999 -9999 -9999 -9999 -9999 -9999 -9999 -9999 -9999 -9999 -9999 -9999 -9999 -9999 -9999 -9999 -9999 -9999
1032 1026 1019 1012 1005 998 993 986 979 970 960 950 939 926 913 900 887 875 864 852 838 824 810 795 778 761 744 727 711 696 682 670 660 652 646 641 639 637 636 637 639 641 643 644 645 644 642 639 635 629 624 618 611 604 596 587 577 568 558 546 533 521 510 500 490 481 473 466 460 455 448 442 436 431 425 419 414 410 406 403 400 397 392 387 381 375 367 359 351 343 337 332 327 323 318 315 311 307 301 295 289 284 279 276 271 267 263 260 259 259 258 257 254 250 246 239 231 220 206 191 175 158 140 123 107 94 83 74 65 57 50 45 41 37 32 25 19 14 10 7 5 2 -9999 -9999 -9999 -9999 -9999 -9999 -9999 -9999 -9999 -9999 -9999 -9999 -9999 -9999 -9999 -9999 -9999 -9999 -9999 -9999 -9999 -9999 -9999 -9999 -9999 -9999 -9999 -9999 -9999 -9999 -9999 -9999 -9999 -9999 -9999 -9999 -9999 -9999 -9999 -9999 -9999 -9999 -9999 -9999 -9999 -9999 -9999 -9999 -9999
1038 1032 1024 1017 1010 1003 997 991 983 974 963 952 940 927 912 898 885 872 861 850 838 825 811 796 781 765 748 731 715 699 685 673 663 654 648 644 641 639 639 640 642 645 648 649 650 650 648 645 641 635 629 623 615 607 598 589 579 570 560 548 536 525 515 505 495 487 479 473 467 462 456 450 444 438 432 425 419 414 409 405 400 395 390 383 375 368 359 350 341 333 326 320 315 311 307 304 300 295 290 284 277 271 266 262 258 254 251 250 249 250 250 249 247 244 241 236 228 218 204 189 173 156 138 120 103 89 77 67 58 50 43 39 35 32 27 21 16 12 8 6 4 1 -9999 -9999 -9999 -9999 -9999 -9999 -9999 -9999 -9999 -9999 -9999 -9999 -9999 -9999 -9999 -9999 -9999 -9999 -9999 -9999 -9999 -9999 -9999 -9999 -9999 -9999 -9999 -9999 -9999 -9999 -9999 -9999 -9999 -9999 -9999 -9999 -9999 -9999 -9999 -9999 -9999 -9999 -9999 -9999 -9999 -9999 -9999 -9999 -9999
1044 1037 1029 1021 1013 1006 999 992 984 974 964 952 938 924 908 893 879 867 856 845 834 822 809 796 781 766 750 733 717 702 688 676 666 658 652 647 644 643 643 644 647 649 652 654 655 655 653 650 645 639 633 625 617 608 599 589 579 570 561 550 539 529 519 510 501 493 486 479 473 468 462 456 450 444 437 430 423 417 411 405 398 392 385 377 368 359 349 339 329 321 314 308 303 299 295 292 289 284 278 272 266 259 254 250 246 243 241 239 239 240 241 241 239 237 234 230 223 213 200 186 170 154 136 117 99 84 72 61 52 44 37 33 29 26 22 17 13 9 7 5 3 1 -9999 -9999 -9999 -9999 -9999 -9999 -9999 -9999 -9999 -9999 -9999 -9999 -9999 -9999 -9999 -9999 -9999 -9999 -9999 -9999 -9999 -9999 -9999 -9999 -9999 -9999 -9999 -9999 -9999 -9999 -9999 -9999 -9999 -9999 -9999 -9999 -9999 -9999 -9999 -9999 -9999 -9999 -9999 -9999 -9999 -9999 -9999 -9999 -9999
1050 1041 1033 1024 1016 1007 999 992 983 973 961 949 934 919 903 887 872 859 848 837 827 816 805 793 779 765 750 734 719 704 691 679 669 661 655 651 648 646 646 647 650 653 655 658 659 659 657 654 649 642 635 627 618 608 598 588 578 570 561 551 541 531 523 515 507 499 491 484 478 473 467 461 454 447 440 432 425 417 410 403 395 387 378 369 359 349 338 327 317 308 301 295 290 286 283 280 277 272 267 261 254 248 243 239 235 232 230 229 229 231 232 232 230 228 226 222 216 207 194 181 166 150 132 114 96 80 67 56 46 37 31 26 23 21 17 13 10 7 5 4 2 1 -9999 -9999 -9999 -9999 -9999 -9999 -9999 -9999 -9999 -9999 -9999 -9999 -9999 -9999 -9999 -9999 -9999 -9999 -9999 -9999 -9999 -9999 -9999 -9999 -9999 -9999 -9999 -9999 -9999 -9999 -9999 -9999 -9999 -9999 -9999 -9999 -9999 -9999 -9999 -9999 -9999 -9999 -9999 -9999 -9999 -9999 -9999 -9999 -9999
1054 1045 1036 1027 1018 1009 1000 991 982 971 959 945 930 913 897 880 865 852 840 830 820 810 800 789 776 763 749 734 719 705 692 681 672 664 658 654 651 650 649 651 653 656 659 661 662 662 660 657 651 644 636 627 617 607 596 586 577 570 562 553 543 535 526 519 512 504 496 489 482 477 471 464 457 449 442 433 425 416 408 399 389 380 370 359 348 338 327 315 305 296 289 283 278 274 270 267 264 260 255 249 242 237 232 228 224 221 219 218 219 221 221 221 220 217 215 212 206 197 186 173 159 144 127 109 91 76 62 50 40 31 25 20 17 15 12 9 7 5 4 3 1 -9999 -9999 -9999 -9999 -9999 -9999 -9999 -9999 -9999 -9999 -9999 -9999 -9999 -9999 -9999 -9999 -9999 -9999 -9999 -9999 -9999 -9999 -9999 -9999 -9999 -9999 -9999 -9999 -9999 -9999 -9999 -9999 -9999 -9999 -9999 -9999 -9999 -9999 -9999 -9999 -9999 -9999 -9999 -9999 -9999 -9999 -9999 -9999 -9999 -9999
1058 1049 1039 1030 1020 1010 1000 990 980 969 956 941 925 908 891 875 860 846 834 824 815 806 796 785 774 762 748 734 720 706 694 683 674 667 661 657 654 653 653 653 655 658 661 663 665 664 662 658 652 644 636 626 616 605 595 585 576 569 562 554 545 537 530 523 516 508 500 492 485 479 473 466 458 450 442 432 423 413 403 393 382 371 360 348 337 326 315 304 294 286 278 272 267 262 258 255 251 247 242 236 231 225 220 217 214 211 210 209 210 211 211 211 209 206 203 200 194 186 175 163 150 136 120 103 86 70 56 44 34 25 19 15 12 10 8 6 4 3 2 1 1 -9999 -9999 -9999 -9999 -9999 -9999 -9999 -9999 -9999 -9999 -9999 -9999 -9999 -9999 -9999 -9999 -9999 -9999 -9999 -9999 -9999 -9999 -9999 -9999 -9999 -9999 -9999 -9999 -9999 -9999 -9999 -9999 -9999 -9999 -9999 -9999 -9999 -9999 -9999 -9999 -9999 -9999 -9999 -9999 -9999 -9999 -9999 -9999 -9999 -9999
1062 1052 1042 1032 1021 1010 999 989 978 967 953 938 921 904 887 871 855 842 830 820 811 802 793 784 773 761 748 735 721 707 695 685 676 669 663 660 657 655 655 656 658 660 663 665 666 665 663 659 652 644 635 625 614 603 593 584 576 569 562 555 547 540 532 526 518 510 502 494 486 480 473 465 457 448 439 429 418 407 396 384 373 361 349 337 326 315 305 295 285 277 269 262 257 252 247 243 238 233 228 223 218 213 209 206 203 201 201 200 200 201 201 200 197 193 190 186 181 172 162 151 139 126 111 94 78 63 50 38 28 20 14 10 8 6 4 3 2 1 1 1 -9999 -9999 -9999 -9999 -9999 -9999 -9999 -9999 -9999 -9999 -9999 -9999 -9999 -9999 -9999 -9999 -9999 -9999 -9999 -9999 -9999 -9999 -9999 -9999 -9999 -9999 -9999 -9999 -9999 -9999 -9999 -9999 -9999 -9999 -9999 -9999 -9999 -9999 -9999 -9999 -9999 -9999 -9999 -9999 -9999 -9999 -9999 -9999 -9999 -9999 -9999
1066 1055 1044 1033 1022 1010 998 987 976 964 950 935 918 900 883 867 852 839 827 817 808 800 791 782 772 761 748 735 721 709 697 687 679 671 666 662 660 658 658 659 660 663 665 667 668 667 664 660 653 645 636 625 615 604 593 584 577 570 564 557 549 542 534 527 520 511 503 494 485 477 470 462 453 443 433 422 411 399 387 374 362 349 337 325 314 304 294 285 276 268 261 253 247 241 235 230 225 219 215 210 205 201 197 195 193 192 192 191 191 191 190 187 184 180 175 170 164 156 146 136 125 112 99 83 69 55 43 32 22 15 10 6 4 3 2 1 -9999 -9999 -9999 -9999 -9999 -9999 -9999 -9999 -9999 -9999 -9999 -9999 -9999 -9999 -9999 -9999 -9999 -9999 -9999 -9999 -9999 -9999 -9999 -9999 -9999 -9999 -9999 -9999 -9999 -9999 -9999 -9999 -9999 -9999 -9999 -9999 -9999 -9999 -9999 -9999 -9999 -9999 -9999 -9999 -9999 -9999 -9999 -9999 -9999 -9999 -9999 -9999 -9999 -9999 -9999
1070 1058 1046 1033 1021 1009 996 984 973 960 946 930 913 896 880 864 849 836 824 815 806 798 790 781 772 761 749 736 724 711 700 691 682 675 670 666 663 661 661 662 663 665 667 668 669 668 666 661 655 647 637 627 616 605 595 586 579 572 565 558 550 542 534 526 519 510 501 491 482 473 465 456 446 436 425 413 401 389 377 364 351 338 326 314 303 294 284 275 267 259 252 244 237 230 224 218 212 206 201 197 193 189 186 184 183 183 183 182 181 180 178 174 170 164 159 153 146 138 128 118 108 97 84 71 58 45 35 25 17 11 7 4 3 2 1 -9999 -9999 -9999 -9999 -9999 -9999 -9999 -9999 -9999 -9999 -9999 -9999 -9999 -9999 -9999 -9999 -9999 -9999 -9999 -9999 -9999 -9999 -9999 -9999 -9999 -9999 -9999 -9999 -9999 -9999 -9999 -9999 -9999 -9999 -9999 -9999 -9999 -9999 -9999 -9999 -9999 -9999 -9999 -9999 -9999 -9999 -9999 -9999 -9999 -9999 -9999 -9999 -9999 -9999 -9999 -9999
1074 1061 1047 1033 1020 1006 993 980 968 954 940 925 908 892 876 861 846 833 823 813 805 798 790 782 773 763 752 740 728 716 705 696 688 681 675 671 668 666 665 666 667 669 670 671 672 670 668 663 657 649 639 629 619 608 598 589 581 573 566 558 549 540 531 523 515 506 496 486 476 467 458 448 437 426 415 403 390 378 366 353 340 328 316 305 294 285 276 268 260 252 245 237 229 221 214 207 200 194 189 185 182 178 176 175 174 174 174 172 170 168 165 161 155 149 142 135 127 119 109 100 91 80 69 57 46 36 27 19 12 7 4 2 1 1 -9999 -9999 -9999 -9999 -9999 -9999 -9999 -9999 -9999 -9999 -9999 -9999 -9999 -9999 -9999 -9999 -9999 -9999 -9999 -9999 -9999 -9999 -9999 -9999 -9999 -9999 -9999 -9999 -9999 -9999 -9999 -9999 -9999 -9999 -9999 -9999 -9999 -9999 -9999 -9999 -9999 -9999 -9999 -9999 -9999 -9999 -9999 -9999 -9999 -9999 -9999 -9999 -9999 -9999 -9999 -9999 -9999
1077 1063 1048 1033 1019 1004 990 976 963 949 935 920 905 889 874 859 845 834 824 815 807 800 793 785 777 767 756 745 733 722 712 703 694 687 682 678 675 672 671 671 672 673 674 675 675 673 670 665 658 651 641 631 621 610 600 591 582 574 566 557 547 537 527 518 510 500 490 480 469 460 450 439 428 416 404 391 379 367 354 342 330 319 308 297 287 278 270 262 254 247 239 230 221 213 204 197 189 183 177 173 170 167 165 164 164 164 163 161 159 156 152 147 140 133 125 116 109 100 91 83 74 65 55 45 36 28 20 14 8 5 2 1 -9999 -9999 -9999 -9999 -9999 -9999 -9999 -9999 -9999 -9999 -9999 -9999 -9999 -9999 -9999 -9999 -9999 -9999 -9999 -9999 -9999 -9999 -9999 -9999 -9999 -9999 -9999 -9999 -9999 -9999 -9999 -9999 -9999 -9999 -9999 -9999 -9999 -9999 -9999 -9999 -9999 -9999 -9999 -9999 -9999 -9999 -9999 -9999 -9999 -9999 -9999 -9999 -9999 -9999 -9999 -9999 -9999 -9999 -9999
1078 1063 1048 1032 1017 1002 987 973 959 946 932 918 903 888 874 861 848 837 828 820 812 805 798 791 783 773 763 751 740 730 719 710 701 694 688 684 681 678 677 677 678 679 679 679 679 676 673 668 661 653 644 634 624 613 603 593 583 574 565 555 544 533 523 513 504 494 484 474 463 452 441 430 418 405 392 379 367 355 343 331 320 310 300 289 280 272 264 257 250 242 233 224 214 205 195 186 178 170 164 159 155 152 151 151 151 151 150 148 145 142 137 131 123 115 106 98 90 82 73 65 58 49 41 34 27 20 15 9 5 3 1 -9999 -9999 -9999 -9999 -9999 -9999 -9999 -9999 -9999 -9999 -9999 -9999 -9999 -9999 -9999 -9999 -9999 -9999 -9999 -9999 -9999 -9999 -9999 -9999 -9999 -9999 -9999 -9999 -9999 -9999 -9999 -9999 -9999 -9999 -9999 -9999 -9999 -9999 -9999 -9999 -9999 -9999 -9999 -9999 -9999 -9999 -9999 -9999 -9999 -9999 -9999 -9999 -9999 -9999 -9999 -9999 -9999 -9999 -9999 -9999
1077 1062 1047 1031 1015 1000 984 970 956 943 929 916 902 888 876 864 853 843 835 828 821 814 807 800 791 782 771 760 749 738 728 718 709 701 695 691 688 686 685 685 686 686 686 686 684 681 677 671 664 656 647 637 626 616 606 595 585 574 564 553 541 529 518 508 498 488 478 468 456 445 433 421 408 395 382 369 356 343 332 321 311 301 292 282 273 265 259 252 245 237 228 218 207 196 185 175 165 157 149 143 139 136 135 135 135 135 134 131 128 125 121 114 106 97 88 79 72 64 56 49 42 36 29 24 18 14 10 6 3 1 1 -9999 -9999 -9999 -9999 -9999 -9999 -9999 -9999 -9999 -9999 -9999 -9999 -9999 -9999 -9999 -9999 -9999 -9999 -9999 -9999 -9999 -9999 -9999 -9999 -9999 -9999 -9999 -9999 -9999 -9999 -9999 -9999 -9999 -9999 -9999 -9999 -9999 -9999 -9999 -9999 -9999 -9999 -9999 -9999 -9999 -9999 -9999 -9999 -9999 -9999 -9999 -9999 -9999 -9999 -9999 -9999 -9999 -9999 -9999 -9999
1077 1061 1045 1029 1012 996 981 967 953 940 927 914 901 889 878 868 858 850 842 836 829 823 817 810 801 792 781 770 759 748 737 726 717 709 703 699 696 693 693 694 694 694 694 693 690 686 682 676 668 659 650 640 629 618 608 596 585 574 562 551 538 526 514 503 492 482 472 462 450 438 426 413 400 386 373 359 346 334 322 312 303 294 284 275 266 259 253 246 239 230 220 210 198 186 174 163 152 142 134 127 122 118 117 117 117 117 116 114 111 107 102 95 87 79 70 62 55 48 41 35 29 24 19 15 11 8 5 3 1 -9999 -9999 -9999 -9999 -9999 -9999 -9999 -9999 -9999 -9999 -9999 -9999 -9999 -9999 -9999 -9999 -9999 -9999 -9999 -9999 -9999 -9999 -9999 -9999 -9999 -9999 -9999 -9999 -9999 -9999 -9999 -9999 -9999 -9999 -9999 -9999 -9999 -9999 -9999 -9999 -9999 -9999 -9999 -9999 -9999 -9999 -9999 -9999 -9999 -9999 -9999 -9999 -9999 -9999 -9999 -9999 -9999 -9999 -9999 -9999 -9999 -9999
1075 1059 1043 1026 1010 993 978 963 950 937 925 913 901 890 880 871 863 855 849 843 837 832 826 819 811 802 792 781 769 758 746 735 725 717 711 706 703 701 701 702 702 702 702 700 697 692 687 680 672 663 653 643 632 621 610 598 586 574 561 549 536 523 511 499 487 477 467 456 444 431 418 405 392 379 366 352 339 326 315 305 296 287 277 268 259 252 245 239 231 222 211 200 188 175 162 150 139 128 119 112 106 102 100 99 99 98 98 95 92 88 84 77 70 62 54 46 40 34 28 23 18 14 10 8 6 4 2 1 -9999 -9999 -9999 -9999 -9999 -9999 -9999 -9999 -9999 -9999 -9999 -9999 -9999 -9999 -9999 -9999 -9999 -9999 -9999 -9999 -9999 -9999 -9999 -9999 -9999 -9999 -9999 -9999 -9999 -9999 -9999 -9999 -9999 -9999 -9999 -9999 -9999 -9999 -9999 -9999 -9999 -9999 -9999 -9999 -9999 -9999 -9999 -9999 -9999 -9999 -9999 -9999 -9999 -9999 -9999 -9999 -9999 -9999 -9999 -9999 -9999 -9999 -9999
1073 1057 1040 1023 1006 990 974 961 948 935 923 912 901 891 882 874 867 860 855 850 845 840 834 828 821 812 802 791 780 768 757 746 736 727 721 716 712 710 710 711 711 711 710 708 705 699 694 686 677 667 657 645 634 623 611 599 587 574 561 548 535 522 509 496 484 473 463 451 439 426 413 400 387 373 360 346 333 320 308 298 289 279 270 261 252 244 237 230 222 212 201 189 177 163 150 137 126 115 105 98 91 87 84 83 82 81 80 77 74 71 66 61 54 47 40 34 28 23 18 14 10 7 5 3 2 1 1 -9999 -9999 -9999 -9999 -9999 -9999 -9999 -9999 -9999 -9999 -9999 -9999 -9999 -9999 -9999 -9999 -9999 -9999 -9999 -9999 -9999 -9999 -9999 -9999 -9999 -9999 -9999 -9999 -9999 -9999 -9999 -9999 -9999 -9999 -9999 -9999 -9999 -9999 -9999 -9999 -9999 -9999 -9999 -9999 -9999 -9999 -9999 -9999 -9999 -9999 -9999 -9999 -9999 -9999 -9999 -9999 -9999 -9999 -9999 -9999 -9999 -9999 -9999 -9999
1070 1054 1037 1021 1004 987 972 959 947 935 923 913 902 893 884 877 871 865 860 856 852 848 843 838 831 823 813 802 791 780 768 757 747 739 732 727 723 722 721 722 722 721 720 718 714 708 701 692 682 672 660 647 635 624 612 600 587 575 561 548 535 522 508 495 483 472 461 449 437 424 410 397 383 370 356 342 328 315 303 292 282 273 263 254 245 237 230 222 213 203 191 178 165 151 137 125 113 103 93 85 79 74 70 68 66 65 63 60 57 54 51 46 41 35 29 24 19 15 11 8 5 3 2 1 -9999 -9999 -9999 -9999 -9999 -9999 -9999 -9999 -9999 -9999 -9999 -9999 -9999 -9999 -9999 -9999 -9999 -9999 -9999 -9999 -9999 -9999 -9999 -9999 -9999 -9999 -9999 -9999 -9999 -9999 -9999 -9999 -9999 -9999 -9999 -9999 -9999 -9999 -9999 -9999 -9999 -9999 -9999 -9999 -9999 -9999 -9999 -9999 -9999 -9999 -9999 -9999 -9999 -9999 -9999 -9999 -9999 -9999 -9999 -9999 -9999 -9999 -9999 -9999 -9999 -9999 -9999
1068 1052 1035 1019 1002 986 972 959 947 936 925 915 905 896 888 881 875 870 866 862 858 855 852 847 841 833 824 813 802 791 780 769 760 751 744 739 736 735 734 734 734 733 732 729 724 717 709 699 688 676 663 649 637 625 612 599 586 574 561 548 536 522 509 495 483 472 461 449 436 423 409 396 382 368 353 338 324 310 298 287 277 267 257 248 239 231 223 215 205 193 180 167 153 139 125 113 101 91 82 74 67 61 58 55 52 49 47 45 42 40 37 34 29 24 20 16 13 10 7 4 2 1 -9999 -9999 -9999 -9999 -9999 -9999 -9999 -9999 -9999 -9999 -9999 -9999 -9999 -9999 -9999 -9999 -9999 -9999 -9999 -9999 -9999 -9999 -9999 -9999 -9999 -9999 -9999 -9999 -9999 -9999 -9999 -9999 -9999 -9999 -9999 -9999 -9999 -9999 -9999 -9999 -9999 -9999 -9999 -9999 -9999 -9999 -9999 -9999 -9999 -9999 -9999 -9999 -9999 -9999 -9999 -9999 -9999 -9999 -9999 -9999 -9999 -9999 -9999 -9999 -9999 -9999 -9999 -9999 -9999
1065 1049 1033 1017 1001 986 972 959 948 938 928 919 909 900 892 886 880 875 871 868 864 862 859 856 850 843 834 823 812 802 791 781 772 764 757 752 749 748 747 747 746 745 743 740 734 727 718 708 695 682 667 653 639 626 613 599 586 573 561 549 536 523 510 497 485 474 463 451 438 424 410 396 383 368 353 337 322 308 294 283 272 262 252 242 233 224 216 207 196 183 169 155 140 126 112 100 88 78 69 61 54 49 45 41 38 35 33 31 29 27 25 23 19 15 12 10 8 6 4 2 1 -9999 -9999 -9999 -9999 -9999 -9999 -9999 -9999 -9999 -9999 -9999 -9999 -9999 -9999 -9999 -9999 -9999 -9999 -9999 -9999 -9999 -9999 -9999 -9999 -9999 -9999 -9999 -9999 -9999 -9999 -9999 -9999 -9999 -9999 -9999 -9999 -9999 -9999 -9999 -9999 -9999 -9999 -9999 -9999 -9999 -9999 -9999 -9999 -9999 -9999 -9999 -9999 -9999 -9999 -9999 -9999 -9999 -9999 -9999 -9999 -9999 -9999 -9999 -9999 -9999 -9999 -9999 -9999 -9999 -9999
1063 1048 1032 1016 1001 986 973 961 950 940 931 922 913 904 896 890 885 879 876 873 870 868 866 864 859 852 843 833 822 812 802 793 784 777 770 765 763 762 761 760 759 758 755 751 746 738 729 717 704 689 673 657 642 628 614 600 586 574 562 550 538 525 512 500 488 477 466 453 440 426 412 398 384 369 354 337 321 306 293 280 269 258 247 237 228 219 209 199 187 173 159 144 128 114 100 87 76 65 57 49 42 37 33 29 26 23 21 19 18 17 15 13 11 8 7 5 4 3 2 1 -9999 -9999 -9999 -9999 -9999 -9999 -9999 -9999 -9999 -9999 -9999 -9999 -9999 -9999 -9999 -9999 -9999 -9999 -9999 -9999 -9999 -9999 -9999 -9999 -9999 -9999 -9999 -9999 -9999 -9999 -9999 -9999 -9999 -9999 -9999 -9999 -9999 -9999 -9999 -9999 -9999 -9999 -9999 -9999 -9999 -9999 -9999 -9999 -9999 -9999 -9999 -9999 -9999 -9999 -9999 -9999 -9999 -9999 -9999 -9999 -9999 -9999 -9999 -9999 -9999 -9999 -9999 -9999 -9999 -9999 -9999
1062 1047 1032 1017 1002 988 975 963 953 943 934 925 916 907 900 894 889 884 880 878 875 874 873 871 867 861 853 843 833 823 813 805 797 790 784 779 777 776 775 774 772 770 768 764 758 750 740 728 713 697 680 662 646 631 616 601 588 576 564 553 542 530 517 505 493 481 470 458 444 429 415 401 387 372 355 338 322 306 292 279 266 254 243 233 223 213 203 192 179 164 149 133 117 102 88 75 64 54 46 39 32 27 23 19 16 14 12 10 9 9 8 6 5 4 3 2 2 1 1 -9999 -9999 -9999 -9999 -9999 -9999 -9999 -9999 -9999 -9999 -9999 -9999 -9999 -9999 -9999 -9999 -9999 -9999 -9999 -9999 -9999 -9999 -9999 -9999 -9999 -9999 -9999 -9999 -9999 -9999 -9999 -9999 -9999 -9999 -9999 -9999 -9999 -9999 -9999 -9999 -9999 -9999 -9999 -9999 -9999 -9999 -9999 -9999 -9999 -9999 -9999 -9999 -9999 -9999 -9999 -9999 -9999 -9999 -9999 -9999 -9999 -9999 -9999 -9999 -9999 -9999 -9999 -9999 -9999 -9999 -9999 -9999
1062 1048 1034 1019 1005 991 978 966 956 946 937 929 919 910 902 896 891 886 883 881 880 879 879 878 875 870 863 854 843 834 825 818 811 804 798 794 792 791 790 788 786 784 781 776 770 762 751 738 723 706 687 668 651 634 619 604 591 579 568 557 547 535 523 511 499 487 475 463 449 434 420 406 391 375 358 340 323 307 292 278 264 251 239 229 219 209 197 185 172 156 140 124 108 92 78 65 54 44 37 31 25 20 16 13 10 8 6 5 4 4 3 2 1 1 1 -9999 -9999 -9999 -9999 -9999 -9999 -9999 -9999 -9999 -9999 -9999 -9999 -9999 -9999 -9999 -9999 -9999 -9999 -9999 -9999 -9999 -9999 -9999 -9999 -9999 -9999 -9999 -9999 -9999 -9999 -9999 -9999 -9999 -9999 -9999 -9999 -9999 -9999 -9999 -9999 -9999 -9999 -9999 -9999 -9999 -9999 -9999 -9999 -9999 -9999 -9999 -9999 -9999 -9999 -9999 -9999 -9999 -9999 -9999 -9999 -9999 -9999 -9999 -9999 -9999 -9999 -9999 -9999 -9999 -9999 -9999 -9999 -9999 -9999 -9999 -9999
1062 1049 1035 1022 1008 995 982 971 960 951 942 933 923 914 905 899 893 889 886 885 884 884 885 885 883 879 873 864 855 847 839 832 826 820 814 811 809 807 806 803 801 797 794 789 782 773 762 748 732 714 694 675 656 639 623 608 595 584 573 563 553 542 531 519 507 495 483 470 456 441 426 412 396 380 362 343 325 309 293 277 263 249 237 226 215 204 193 180 166 150 134 117 101 85 70 58 46 37 30 24 20 15 12 9 6 5 3 2 2 1 1 1 -9999 -9999 -9999 -9999 -9999 -9999 -9999 -9999 -9999 -9999 -9999 -9999 -9999 -9999 -9999 -9999 -9999 -9999 -9999 -9999 -9999 -9999 -9999 -9999 -9999 -9999 -9999 -9999 -9999 -9999 -9999 -9999 -9999 -9999 -9999 -9999 -9999 -9999 -9999 -9999 -9999 -9999 -9999 -9999 -9999 -9999 -9999 -9999 -9999 -9999 -9999 -9999 -9999 -9999 -9999 -9999 -9999 -9999 -9999 -9999 -9999 -9999 -9999 -9999 -9999 -9999 -9999 -9999 -9999 -9999 -9999 -9999 -9999 -9999 -9999 -9999 -9999 -9999 -9999
1064 1051 1039 1026 1013 1000 988 977 967 957 948 939 929 919 911 903 898 893 891 890 890 891 892 893 892 889 884 876 868 860 854 848 843 838 833 829 827 826 824 820 817 812 807 802 795 785 773 759 742 723 703 683 664 646 629 614 601 589 579 570 561 551 540 529 517 505 493 480 465 450 435 419 403 386 367 347 329 311 294 279 263 248 236 224 213 202 189 176 162 146 129 112 95 79 65 52 40 31 25 19 15 12 8 6 4 2 2 1 -9999 -9999 -9999 -9999 -9999 -9999 -9999 -9999 -9999 -9999 -9999 -9999 -9999 -9999 -9999 -9999 -9999 -9999 -9999 -9999 -9999 -9999 -9999 -9999 -9999 -9999 -9999 -9999 -9999 -9999 -9999 -9999 -9999 -9999 -9999 -9999 -9999 -9999 -9999 -9999 -9999 -9999 -9999 -9999 -9999 -9999 -9999 -9999 -9999 -9999 -9999 -9999 -9999 -9999 -9999 -9999 -9999 -9999 -9999 -9999 -9999 -9999 -9999 -9999 -9999 -9999 -9999 -9999 -9999 -9999 -9999 -9999 -9999 -9999 -9999 -9999 -9999 -9999 -9999 -9999 -9999 -9999 -9999
1068 1056 1044 1033 1020 1008 996 985 975 965 956 946 936 927 918 910 904 900 897 897 897 898 900 901 901 898 894 888 881 874 869 864 860 856 852 849 847 846 843 839 834 828 822 816 807 797 785 770 752 733 712 692 672 653 636 620 607 597 587 578 569 559 549 539 527 515 503 490 475 460 444 428 412 394 374 354 335 317 299 283 266 251 238 226 214 202 189 175 160 143 126 109 91 75 60 47 35 26 20 15 11 8 5 3 2 1 1 -9999 -9999 -9999 -9999 -9999 -9999 -9999 -9999 -9999 -9999 -9999 -9999 -9999 -9999 -9999 -9999 -9999 -9999 -9999 -9999 -9999 -9999 -9999 -9999 -9999 -9999 -9999 -9999 -9999 -9999 -9999 -9999 -9999 -9999 -9999 -9999 -9999 -9999 -9999 -9999 -9999 -9999 -9999 -9999 -9999 -9999 -9999 -9999 -9999 -9999 -9999 -9999 -9999 -9999 -9999 -9999 -9999 -9999 -9999 -9999 -9999 -9999 -9999 -9999 -9999 -9999 -9999 -9999 -9999 -9999 -9999 -9999 -9999 -9999 -9999 -9999 -9999 -9999 -9999 -9999 -9999 -9999 -9999 -9999
1073 1062 1051 1040 1028 1017 1005 995 984 974 964 954 944 935 926 918 912 907 905 904 905 906 908 909 909 907 904 899 893 888 884 881 878 875 872 870 868 866 862 858 851 845 837 829 820 809 796 780 762 742 722 702 682 663 645 629 616 606 596 587 578 569 559 549 537 525 513 499 485 469 454 438 422 404 384 364 345 326 307 290 272 256 242 229 217 203 190 175 160 143 125 107 89 72 56 43 31 22 15 11 7 5 3 2 1 -9999 -9999 -9999 -9999 -9999 -9999 -9999 -9999 -9999 -9999 -9999 -9999 -9999 -9999 -9999 -9999 -9999 -9999 -9999 -9999 -9999 -9999 -9999 -9999 -9999 -9999 -9999 -9999 -9999 -9999 -9999 -9999 -9999 -9999 -9999 -9999 -9999 -9999 -9999 -9999 -9999 -9999 -9999 -9999 -9999 -9999 -9999 -9999 -9999 -9999 -9999 -9999 -9999 -9999 -9999 -9999 -9999 -9999 -9999 -9999 -9999 -9999 -9999 -9999 -9999 -9999 -9999 -9999 -9999 -9999 -9999 -9999 -9999 -9999 -9999 -9999 -9999 -9999 -9999 -9999 -9999 -9999 -9999 -9999 -9999 -9999
1079 1069 1060 1050 1038 1026 1015 1005 994 984 974 963 953 944 934 927 920 916 914 913 913 915 916 917 917 916 914 910 906 902 899 897 896 894 892 890 888 885 882 876 868 860 852 843 833 821 807 791 772 753 733 713 693 674 656 640 628 617 607 598 590 580 570 560 548 535 522 509 494 479 464 448 432 414 394 375 355 336 317 298 279 262 248 235 221 207 192 178 161 144 126 108 89 71 55 41 29 19 13 8 5 3 1 1 -9999 -9999 -9999 -9999 -9999 -9999 -9999 -9999 -9999 -9999 -9999 -9999 -9999 -9999 -9999 -9999 -9999 -9999 -9999 -9999 -9999 -9999 -9999 -9999 -9999 -9999 -9999 -9999 -9999 -9999 -9999 -9999 -9999 -9999 -9999 -9999 -9999 -9999 -9999 -9999 -9999 -9999 -9999 -9999 -9999 -9999 -9999 -9999 -9999 -9999 -9999 -9999 -9999 -9999 -9999 -9999 -9999 -9999 -9999 -9999 -9999 -9999 -9999 -9999 -9999 -9999 -9999 -9999 -9999 -9999 -9999 -9999 -9999 -9999 -9999 -9999 -9999 -9999 -9999 -9999 -9999 -9999 -9999 -9999 -9999 -9999 -9999
1087 1078 1069 1060 1049 1037 1026 1016 1006 995 984 973 963 954 945 937 931 926 924 923 924 925 925 926 926 926 924 921 919 916 914 913 913 913 911 910 908 905 901 894 885 876 866 855 844 832 817 801 782 764 744 725 706 687 669 655 643 632 623 613 604 595 585 574 560 547 533 519 504 489 474 458 442 424 406 386 367 347 327 308 288 270 255 241 227 211 196 181 165 148 129 110 90 72 55 41 28 19 12 7 3 1 -9999 -9999 -9999 -9999 -9999 -9999 -9999 -9999 -9999 -9999 -9999 -9999 -9999 -9999 -9999 -9999 -9999 -9999 -9999 -9999 -9999 -9999 -9999 -9999 -9999 -9999 -9999 -9999 -9999 -9999 -9999 -9999 -9999 -9999 -9999 -9999 -9999 -9999 -9999 -9999 -9999 -9999 -9999 -9999 -9999 -9999 -9999 -9999 -9999 -9999 -9999 -9999 -9999 -9999 -9999 -9999 -9999 -9999 -9999 -9999 -9999 -9999 -9999 -9999 -9999 -9999 -9999 -9999 -9999 -9999 -9999 -9999 -9999 -9999 -9999 -9999 -9999 -9999 -9999 -9999 -9999 -9999 -9999 -9999 -9999 -9999 -9999 -9999 -9999
1095 1088 1080 1071 1060 1050 1039 1029 1019 1008 996 985 974 965 956 949 942 938 935 934 935 936 936 937 937 936 935 933 932 930 929 929 930 931 930 930 927 924 919 911 902 891 879 867 855 842 827 810 792 774 756 737 719 702 685 671 659 649 640 630 621 611 601 589 575 560 545 531 515 500 484 468 453 436 418 399 379 359 339 319 298 279 263 248 233 217 202 187 170 152 134 114 94 75 58 43 30 19 12 7 3 1 -9999 -9999 -9999 -9999 -9999 -9999 -9999 -9999 -9999 -9999 -9999 -9999 -9999 -9999 -9999 -9999 -9999 -9999 -9999 -9999 -9999 -9999 -9999 -9999 -9999 -9999 -9999 -9999 -9999 -9999 -9999 -9999 -9999 -9999 -9999 -9999 -9999 -9999 -9999 -9999 -9999 -9999 -9999 -9999 -9999 -9999 -9999 -9999 -9999 -9999 -9999 -9999 -9999 -9999 -9999 -9999 -9999 -9999 -9999 -9999 -9999 -9999 -9999 -9999 -9999 -9999 -9999 -9999 -9999 -9999 -9999 -9999 -9999 -9999 -9999 -9999 -9999 -9999 -9999 -9999 -9999 -9999 -9999 -9999 -9999 -9999 -9999 -9999 -9999
1105 1098 1091 1083 1073 1062 1052 1043 1033 1021 1009 997 986 977 968 960 954 950 947 946 947 948 948 948 948 948 947 946 945 944 944 946 948 949 949 949 946 942 936 927 916 904 891 878 864 851 835 818 800 783 766 749 732 715 699 686 675 666 657 647 638 628 616 604 589 573 558 542 526 511 494 479 463 447 430 411 392 372 351 331 310 290 273 257 241 225 208 193 175 158 139 119 99 79 61 46 32 21 13 7 3 1 -9999 -9999 -9999 -9999 -9999 -9999 -9999 -9999 -9999 -9999 -9999 -9999 -9999 -9999 -9999 -9999 -9999 -9999 -9999 -9999 -9999 -9999 -9999 -9999 -9999 -9999 -9999 -9999 -9999 -9999 -9999 -9999 -9999 -9999 -9999 -9999 -9999 -9999 -9999 -9999 -9999 -9999 -9999 -9999 -9999 -9999 -9999 -9999 -9999 -9999 -9999 -9999 -9999 -9999 -9999 -9999 -9999 -9999 -9999 -9999 -9999 -9999 -9999 -9999 -9999 -9999 -9999 -9999 -9999 -9999 -9999 -9999 -9999 -9999 -9999 -9999 -9999 -9999 -9999 -9999 -9999 -9999 -9999 -9999 -9999 -9999 -9999 -9999 -9999
1116 1110 1103 1096 1086 1077 1067 1058 1047 1035 1023 1010 998 988 980 972 966 961 959 958 959 960 960 960 960 959 959 958 958 958 960 962 965 967 967 967 964 959 952 942 929 916 902 887 873 858 843 826 808 792 776 760 744 729 714 702 691 682 674 664 654 643 632 618 603 587 571 554 538 522 505 489 474 458 441 423 404 384 363 343 322 302 283 266 250 232 215 199 182 164 145 125 104 84 65 49 35 23 15 8 4 1 -9999 -9999 -9999 -9999 -9999 -9999 -9999 -9999 -9999 -9999 -9999 -9999 -9999 -9999 -9999 -9999 -9999 -9999 -9999 -9999 -9999 -9999 -9999 -9999 -9999 -9999 -9999 -9999 -9999 -9999 -9999 -9999 -9999 -9999 -9999 -9999 -9999 -9999 -9999 -9999 -9999 -9999 -9999 -9999 -9999 -9999 -9999 -9999 -9999 -9999 -9999 -9999 -9999 -9999 -9999 -9999 -9999 -9999 -9999 -9999 -9999 -9999 -9999 -9999 -9999 -9999 -9999 -9999 -9999 -9999 -9999 -9999 -9999 -9999 -9999 -9999 -9999 -9999 -9999 -9999 -9999 -9999 -9999 -9999 -9999 -9999 -9999 -9999 -9999
1127 1122 1116 1109 1100 1091 1082 1072 1062 1049 1036 1022 1010 1000 991 984 978 974 972 971 972 973 973 972 971 971 970 971 972 972 974 978 981 983 983 983 980 974 966 955 941 927 912 897 882 867 851 834 817 800 785 771 757 742 729 717 708 699 690 680 670 659 647 633 617 600 583 566 550 533 516 500 484 469 452 435 416 396 375 355 334 313 295 277 259 241 223 206 188 170 150 130 109 88 69 52 37 25 16 9 4 1 -9999 -9999 -9999 -9999 -9999 -9999 -9999 -9999 -9999 -9999 -9999 -9999 -9999 -9999 -9999 -9999 -9999 -9999 -9999 -9999 -9999 -9999 -9999 -9999 -9999 -9999 -9999 -9999 -9999 -9999 -9999 -9999 -9999 -9999 -9999 -9999 -9999 -9999 -9999 -9999 -9999 -9999 -9999 -9999 -9999 -9999 -9999 -9999 -9999 -9999 -9999 -9999 -9999 -9999 -9999 -9999 -9999 -9999 -9999 -9999 -9999 -9999 -9999 -9999 -9999 -9999 -9999 -9999 -9999 -9999 -9999 -9999 -9999 -9999 -9999 -9999 -9999 -9999 -9999 -9999 -9999 -9999 -9999 -9999 -9999 -9999 -9999 -9999 -9999
1138 1133 1128 1121 1113 1104 1095 1086 1075 1062 1049 1035 1022 1012 1003 996 991 987 984 984 985 985 985 984 983 982 982 983 984 985 988 993 996 998 998 998 994 987 979 967 953 938 923 907 890 874 858 841 825 809 795 781 768 756 744 733 724 715 706 696 685 673 660 646 630 613 595 578 561 545 528 511 495 480 464 447 428 408 387 366 345 325 305 287 268 249 231 213 195 175 155 134 112 91 71 54 38 26 16 9 4 1 -9999 -9999 -9999 -9999 -9999 -9999 -9999 -9999 -9999 -9999 -9999 -9999 -9999 -9999 -9999 -9999 -9999 -9999 -9999 -9999 -9999 -9999 -9999 -9999 -9999 -9999 -9999 -9999 -9999 -9999 -9999 -9999 -9999 -9999 -9999 -9999 -9999 -9999 -9999 -9999 -9999 -9999 -9999 -9999 -9999 -9999 -9999 -9999 -9999 -9999 -9999 -9999 -9999 -9999 -9999 -9999 -9999 -9999 -9999 -9999 -9999 -9999 -9999 -9999 -9999 -9999 -9999 -9999 -9999 -9999 -9999 -9999 -9999 -9999 -9999 -9999 -9999 -9999 -9999 -9999 -9999 -9999 -9999 -9999 -9999 -9999 -9999 -9999 -9999
1149 1145 1140 1133 1125 1117 1108 1099 1088 1075 1061 1048 1035 1024 1016 1008 1003 999 997 995 996 997 996 995 994 994 993 994 996 998 1001 1006 1009 1010 1010 1010 1006 999 989 977 963 948 932 915 898 881 865 848 832 817 803 791 779 768 757 747 739 730 721 711 699 687 673 658 642 625 608 590 574 557 539 522 507 491 475 457 439 419 398 377 356 335 315 295 275 256 237 219 199 180 159 137 115 93 73 55 39 26 16 9 4 1 -9999 -9999 -9999 -9999 -9999 -9999 -9999 -9999 -9999 -9999 -9999 -9999 -9999 -9999 -9999 -9999 -9999 -9999 -9999 -9999 -9999 -9999 -9999 -9999 -9999 -9999 -9999 -9999 -9999 -9999 -9999 -9999 -9999 -9999 -9999 -9999 -9999 -9999 -9999 -9999 -9999 -9999 -9999 -9999 -9999 -9999 -9999 -9999 -9999 -9999 -9999 -9999 -9999 -9999 -9999 -9999 -9999 -9999 -9999 -9999 -9999 -9999 -9999 -9999 -9999 -9999 -9999 -9999 -9999 -9999 -9999 -9999 -9999 -9999 -9999 -9999 -9999 -9999 -9999 -9999 -9999 -9999 -9999 -9999 -9999 -9999 -9999 -9999 -9999
1159 1156 1151 1145 1138 1130 1121 1112 1101 1088 1075 1061 1048 1037 1028 1021 1016 1012 1009 1007 1008 1008 1007 1006 1006 1005 1004 1005 1007 1009 1012 1016 1019 1020 1020 1019 1015 1007 998 986 971 956 939 922 904 887 870 854 838 824 811 799 789 780 770 761 752 744 734 724 712 699 685 670 653 637 620 603 586 569 552 534 518 502 485 467 449 428 407 386 365 344 323 302 281 261 242 223 203 182 161 139 117 95 74 56 40 27 17 9 4 1 -9999 -9999 -9999 -9999 -9999 -9999 -9999 -9999 -9999 -9999 -9999 -9999 -9999 -9999 -9999 -9999 -9999 -9999 -9999 -9999 -9999 -9999 -9999 -9999 -9999 -9999 -9999 -9999 -9999 -9999 -9999 -9999 -9999 -9999 -9999 -9999 -9999 -9999 -9999 -9999 -9999 -9999 -9999 -9999 -9999 -9999 -9999 -9999 -9999 -9999 -9999 -9999 -9999 -9999 -9999 -9999 -9999 -9999 -9999 -9999 -9999 -9999 -9999 -9999 -9999 -9999 -9999 -9999 -9999 -9999 -9999 -9999 -9999 -9999 -9999 -9999 -9999 -9999 -9999 -9999 -9999 -9999 -9999 -9999 -9999 -9999 -9999 -9999 -9999
1169 1166 1162 1157 1150 1142 1134 1125 1114 1102 1089 1075 1062 1051 1042 1035 1029 1025 1021 1019 1019 1019 1018 1017 1016 1015 1015 1016 1017 1019 1022 1026 1028 1028 1028 1026 1021 1014 1004 992 977 962 945 927 909 892 875 859 843 829 817 806 797 788 780 771 764 755 746 735 723 710 696 681 665 648 632 616 599 582 564 546 530 513 496 478 459 438 417 396 374 352 330 308 287 266 246 226 205 184 162 140 118 95 74 56 39 27 17 9 4 1 -9999 -9999 -9999 -9999 -9999 -9999 -9999 -9999 -9999 -9999 -9999 -9999 -9999 -9999 -9999 -9999 -9999 -9999 -9999 -9999 -9999 -9999 -9999 -9999 -9999 -9999 -9999 -9999 -9999 -9999 -9999 -9999 -9999 -9999 -9999 -9999 -9999 -9999 -9999 -9999 -9999 -9999 -9999 -9999 -9999 -9999 -9999 -9999 -9999 -9999 -9999 -9999 -9999 -9999 -9999 -9999 -9999 -9999 -9999 -9999 -9999 -9999 -9999 -9999 -9999 -9999 -9999 -9999 -9999 -9999 -9999 -9999 -9999 -9999 -9999 -9999 -9999 -9999 -9999 -9999 -9999 -9999 -9999 -9999 -9999 -9999 -9999 -9999 -9999
1178 1176 1172 1167 1161 1153 1145 1136 1126 1114 1101 1087 1074 1063 1054 1047 1042 1037 1032 1030 1029 1029 1027 1026 1025 1025 1024 1025 1027 1028 1031 1034 1035 1035 1033 1031 1026 1018 1008 995 981 966 949 931 913 895 878 862 847 833 821 811 802 795 787 780 773 765 756 746 734 721 706 691 676 660 644 628 612 595 577 560 543 526 508 489 469 449 427 406 384 361 338 314 292 270 248 227 205 183 161 139 117 94 72 54 38 26 16 8 3 1 -9999 -9999 -9999 -9999 -9999 -9999 -9999 -9999 -9999 -9999 -9999 -9999 -9999 -9999 -9999 -9999 -9999 -9999 -9999 -9999 -9999 -9999 -9999 -9999 -9999 -9999 -9999 -9999 -9999 -9999 -9999 -9999 -9999 -9999 -9999 -9999 -9999 -9999 -9999 -9999 -9999 -9999 -9999 -9999 -9999 -9999 -9999 -9999 -9999 -9999 -9999 -9999 -9999 -9999 -9999 -9999 -9999 -9999 -9999 -9999 -9999 -9999 -9999 -9999 -9999 -9999 -9999 -9999 -9999 -9999 -9999 -9999 -9999 -9999 -9999 -9999 -9999 -9999 -9999 -9999 -9999 -9999 -9999 -9999 -9999 -9999 -9999 -9999 -9999
1187 1184 1181 1176 1170 1163 1154 1145 1135 1124 1111 1098 1086 1075 1066 1059 1053 1048 1043 1040 1038 1037 1035 1034 1034 1033 1033 1034 1035 1036 1039 1041 1041 1040 1037 1034 1028 1020 1009 996 982 968 951 934 916 898 881 865 851 837 826 816 808 801 794 788 781 774 765 755 743 731 717 702 687 671 656 640 625 608 591 573 556 538 520 501 481 460 438 416 393 369 345 320 295 272 250 227 204 181 158 136 113 91 69 51 36 24 14 7 2 -9999 -9999 -9999 -9999 -9999 -9999 -9999 -9999 -9999 -9999 -9999 -9999 -9999 -9999 -9999 -9999 -9999 -9999 -9999 -9999 -9999 -9999 -9999 -9999 -9999 -9999 -9999 -9999 -9999 -9999 -9999 -9999 -9999 -9999 -9999 -9999 -9999 -9999 -9999 -9999 -9999 -9999 -9999 -9999 -9999 -9999 -9999 -9999 -9999 -9999 -9999 -9999 -9999 -9999 -9999 -9999 -9999 -9999 -9999 -9999 -9999 -9999 -9999 -9999 -9999 -9999 -9999 -9999 -9999 -9999 -9999 -9999 -9999 -9999 -9999 -9999 -9999 -9999 -9999 -9999 -9999 -9999 -9999 -9999 -9999 -9999 -9999 -9999 -9999 -9999
1193 1191 1188 1184 1178 1170 1162 1153 1143 1132 1121 1109 1096 1086 1078 1070 1064 1058 1053 1048 1046 1044 1042 1041 1041 1040 1040 1041 1043 1043 1045 1047 1045 1042 1039 1035 1028 1019 1008 996 982 968 952 936 918 900 884 869 854 842 831 821 814 808 803 797 791 784 776 766 754 741 727 713 698 683 668 653 638 622 605 588 570 552 533 514 494 472 449 425 401 376 351 324 298 274 250 226 202 178 154 131 109 86 65 47 32 21 12 6 2 -9999 -9999 -9999 -9999 -9999 -9999 -9999 -9999 -9999 -9999 -9999 -9999 -9999 -9999 -9999 -9999 -9999 -9999 -9999 -9999 -9999 -9999 -9999 -9999 -9999 -9999 -9999 -9999 -9999 -9999 -9999 -9999 -9999 -9999 -9999 -9999 -9999 -9999 -9999 -9999 -9999 -9999 -9999 -9999 -9999 -9999 -9999 -9999 -9999 -9999 -9999 -9999 -9999 -9999 -9999 -9999 -9999 -9999 -9999 -9999 -9999 -9999 -9999 -9999 -9999 -9999 -9999 -9999 -9999 -9999 -9999 -9999 -9999 -9999 -9999 -9999 -9999 -9999 -9999 -9999 -9999 -9999 -9999 -9999 -9999 -9999 -9999 -9999 -9999 -9999
1198 1196 1193 1189 1183 1176 1168 1159 1150 1140 1129 1118 1107 1097 1089 1081 1074 1068 1061 1056 1053 1050 1047 1046 1046 1047 1047 1048 1049 1050 1051 1051 1048 1044 1039 1034 1026 1017 1006 994 980 967 952 936 919 902 886 871 858 846 836 827 821 816 812 807 802 795 787 777 766 753 739 724 710 695 681 666 651 635 619 602 585 566 547 528 506 484 460 436 410 384 357 329 301 276 251 226 200 175 150 127 104 82 61 43 29 18 10 4 1 -9999 -9999 -9999 -9999 -9999 -9999 -9999 -9999 -9999 -9999 -9999 -9999 -9999 -9999 -9999 -9999 -9999 -9999 -9999 -9999 -9999 -9999 -9999 -9999 -9999 -9999 -9999 -9999 -9999 -9999 -9999 -9999 -9999 -9999 -9999 -9999 -9999 -9999 -9999 -9999 -9999 -9999 -9999 -9999 -9999 -9999 -9999 -9999 -9999 -9999 -9999 -9999 -9999 -9999 -9999 -9999 -9999 -9999 -9999 -9999 -9999 -9999 -9999 -9999 -9999 -9999 -9999 -9999 -9999 -9999 -9999 -9999 -9999 -9999 -9999 -9999 -9999 -9999 -9999 -9999 -9999 -9999 -9999 -9999 -9999 -9999 -9999 -9999 -9999 -9999
1201 1199 1195 1191 1186 1179 1172 1164 1156 1147 1138 1128 1118 1108 1100 1092 1085 1077 1070 1063 1058 1055 1052 1050 1050 1051 1051 1052 1053 1053 1054 1053 1050 1044 1038 1031 1023 1013 1003 990 977 964 949 934 918 902 887 873 860 849 840 833 827 823 820 817 812 806 798 789 777 764 750 736 721 707 693 678 664 649 633 617 600 582 562 542 520 497 472 446 419 391 363 333 304 278 252 225 198 172 147 122 99 77 57 39 26 16 8 3 1 -9999 -9999 -9999 -9999 -9999 -9999 -9999 -9999 -9999 -9999 -9999 -9999 -9999 -9999 -9999 -9999 -9999 -9999 -9999 -9999 -9999 -9999 -9999 -9999 -9999 -9999 -9999 -9999 -9999 -9999 -9999 -9999 -9999 -9999 -9999 -9999 -9999 -9999 -9999 -9999 -9999 -9999 -9999 -9999 -9999 -9999 -9999 -9999 -9999 -9999 -9999 -9999 -9999 -9999 -9999 -9999 -9999 -9999 -9999 -9999 -9999 -9999 -9999 -9999 -9999 -9999 -9999 -9999 -9999 -9999 -9999 -9999 -9999 -9999 -9999 -9999 -9999 -9999 -9999 -9999 -9999 -9999 -9999 -9999 -9999 -9999 -9999 -9999 -9999 -9999
1200 1198 1195 1191 1186 1180 1173 1166 1159 1152 1145 1136 1128 1119 1111 1103 1095 1086 1077 1070 1064 1059 1055 1053 1053 1053 1054 1055 1055 1055 1055 1053 1048 1042 1035 1027 1018 1008 998 986 973 960 946 932 917 902 888 874 862 853 844 838 833 830 828 825 822 817 809 800 789 776 762 748 733 719 705 691 677 662 646 630 614 596 576 556 533 509 484 457 428 399 368 338 308 280 253 225 197 170 144 119 96 74 54 36 23 14 7 3 -9999 -9999 -9999 -9999 -9999 -9999 -9999 -9999 -9999 -9999 -9999 -9999 -9999 -9999 -9999 -9999 -9999 -9999 -9999 -9999 -9999 -9999 -9999 -9999 -9999 -9999 -9999 -9999 -9999 -9999 -9999 -9999 -9999 -9999 -9999 -9999 -9999 -9999 -9999 -9999 -9999 -9999 -9999 -9999 -9999 -9999 -9999 -9999 -9999 -9999 -9999 -9999 -9999 -9999 -9999 -9999 -9999 -9999 -9999 -9999 -9999 -9999 -9999 -9999 -9999 -9999 -9999 -9999 -9999 -9999 -9999 -9999 -9999 -9999 -9999 -9999 -9999 -9999 -9999 -9999 -9999 -9999 -9999 -9999 -9999 -9999 -9999 -9999 -9999 -9999 -9999
1196 1194 1191 1187 1183 1177 1172 1166 1161 1155 1149 1143 1136 1129 1121 1113 1105 1095 1086 1077 1069 1063 1058 1055 1054 1054 1055 1055 1055 1054 1053 1051 1045 1039 1031 1022 1012 1002 992 980 968 956 943 929 915 901 888 875 865 856 849 843 839 837 836 834 832 827 821 812 801 789 775 761 747 732 718 703 689 674 658 643 627 609 589 568 545 521 494 466 437 406 374 342 311 282 254 225 197 169 142 117 93 71 51 34 22 13 6 2 -9999 -9999 -9999 -9999 -9999 -9999 -9999 -9999 -9999 -9999 -9999 -9999 -9999 -9999 -9999 -9999 -9999 -9999 -9999 -9999 -9999 -9999 -9999 -9999 -9999 -9999 -9999 -9999 -9999 -9999 -9999 -9999 -9999 -9999 -9999 -9999 -9999 -9999 -9999 -9999 -9999 -9999 -9999 -9999 -9999 -9999 -9999 -9999 -9999 -9999 -9999 -9999 -9999 -9999 -9999 -9999 -9999 -9999 -9999 -9999 -9999 -9999 -9999 -9999 -9999 -9999 -9999 -9999 -9999 -9999 -9999 -9999 -9999 -9999 -9999 -9999 -9999 -9999 -9999 -9999 -9999 -9999 -9999 -9999 -9999 -9999 -9999 -9999 -9999 -9999 -9999
1190 1187 1184 1180 1176 1172 1167 1163 1159 1155 1152 1147 1142 1137 1130 1123 1114 1104 1094 1084 1075 1068 1062 1058 1056 1054 1054 1054 1053 1051 1050 1046 1041 1033 1025 1016 1007 997 986 975 963 951 939 926 913 900 888 876 867 859 854 849 846 845 844 844 842 838 833 824 814 803 789 776 761 746 731 716 701 685 670 654 638 620 600 579 556 531 504 475 444 412 380 347 315 285 256 227 197 169 141 115 91 69 49 33 21 12 6 2 -9999 -9999 -9999 -9999 -9999 -9999 -9999 -9999 -9999 -9999 -9999 -9999 -9999 -9999 -9999 -9999 -9999 -9999 -9999 -9999 -9999 -9999 -9999 -9999 -9999 -9999 -9999 -9999 -9999 -9999 -9999 -9999 -9999 -9999 -9999 -9999 -9999 -9999 -9999 -9999 -9999 -9999 -9999 -9999 -9999 -9999 -9999 -9999 -9999 -9999 -9999 -9999 -9999 -9999 -9999 -9999 -9999 -9999 -9999 -9999 -9999 -9999 -9999 -9999 -9999 -9999 -9999 -9999 -9999 -9999 -9999 -9999 -9999 -9999 -9999 -9999 -9999 -9999 -9999 -9999 -9999 -9999 -9999 -9999 -9999 -9999 -9999 -9999 -9999 -9999 -9999
1180 1178 1175 1171 1168 1164 1161 1158 1156 1154 1152 1150 1147 1143 1138 1131 1122 1112 1102 1091 1081 1072 1065 1060 1057 1054 1053 1051 1049 1047 1044 1040 1034 1027 1019 1010 1001 991 981 970 958 947 936 924 912 899 888 877 869 863 859 855 853 853 854 854 853 850 844 837 827 816 803 789 775 760 744 728 713 697 681 665 648 629 610 589 565 540 512 483 451 418 385 352 319 289 259 229 199 170 142 115 90 68 49 32 20 11 5 1 -9999 -9999 -9999 -9999 -9999 -9999 -9999 -9999 -9999 -9999 -9999 -9999 -9999 -9999 -9999 -9999 -9999 -9999 -9999 -9999 -9999 -9999 -9999 -9999 -9999 -9999 -9999 -9999 -9999 -9999 -9999 -9999 -9999 -9999 -9999 -9999 -9999 -9999 -9999 -9999 -9999 -9999 -9999 -9999 -9999 -9999 -9999 -9999 -9999 -9999 -9999 -9999 -9999 -9999 -9999 -9999 -9999 -9999 -9999 -9999 -9999 -9999 -9999 -9999 -9999 -9999 -9999 -9999 -9999 -9999 -9999 -9999 -9999 -9999 -9999 -9999 -9999 -9999 -9999 -9999 -9999 -9999 -9999 -9999 -9999 -9999 -9999 -9999 -9999 -9999 -9999
1169 1166 1163 1160 1158 1156 1154 1153 1152 1152 1152 1152 1151 1148 1143 1137 1128 1119 1108 1097 1086 1077 1068 1062 1057 1054 1051 1047 1044 1041 1037 1033 1027 1019 1012 1004 996 987 978 967 956 945 934 923 911 899 888 879 872 867 864 861 861 861 863 864 863 860 855 848 839 828 815 801 787 773 757 740 724 708 691 675 658 638 618 597 573 547 519 488 456 423 390 356 323 293 263 233 203 173 145 117 92 70 50 33 20 11 5 1 -9999 -9999 -9999 -9999 -9999 -9999 -9999 -9999 -9999 -9999 -9999 -9999 -9999 -9999 -9999 -9999 -9999 -9999 -9999 -9999 -9999 -9999 -9999 -9999 -9999 -9999 -9999 -9999 -9999 -9999 -9999 -9999 -9999 -9999 -9999 -9999 -9999 -9999 -9999 -9999 -9999 -9999 -9999 -9999 -9999 -9999 -9999 -9999 -9999 -9999 -9999 -9999 -9999 -9999 -9999 -9999 -9999 -9999 -9999 -9999 -9999 -9999 -9999 -9999 -9999 -9999 -9999 -9999 -9999 -9999 -9999 -9999 -9999 -9999 -9999 -9999 -9999 -9999 -9999 -9999 -9999 -9999 -9999 -9999 -9999 -9999 -9999 -9999 -9999 -9999 -9999
1155 1153 1151 1149 1148 1147 1148 1148 1149 1150 1152 1154 1154 1151 1147 1141 1133 1124 1113 1102 1091 1080 1071 1063 1057 1051 1047 1042 1037 1033 1029 1024 1018 1011 1005 998 991 984 975 965 955 944 934 923 911 899 889 881 875 871 868 867 867 869 871 872 872 869 864 857 849 838 826 812 798 784 768 752 735 718 701 684 667 647 626 603 579 553 524 493 461 428 395 361 329 298 268 238 209 179 150 122 96 73 52 35 22 12 5 1 -9999 -9999 -9999 -9999 -9999 -9999 -9999 -9999 -9999 -9999 -9999 -9999 -9999 -9999 -9999 -9999 -9999 -9999 -9999 -9999 -9999 -9999 -9999 -9999 -9999 -9999 -9999 -9999 -9999 -9999 -9999 -9999 -9999 -9999 -9999 -9999 -9999 -9999 -9999 -9999 -9999 -9999 -9999 -9999 -9999 -9999 -9999 -9999 -9999 -9999 -9999 -9999 -9999 -9999 -9999 -9999 -9999 -9999 -9999 -9999 -9999 -9999 -9999 -9999 -9999 -9999 -9999 -9999 -9999 -9999 -9999 -9999 -9999 -9999 -9999 -9999 -9999 -9999 -9999 -9999 -9999 -9999 -9999 -9999 -9999 -9999 -9999 -9999 -9999 -9999 -9999
1142 1140 1138 1137 1137 1138 1140 1142 1144 1147 1151 1154 1154 1153 1150 1144 1136 1127 1116 1105 1093 1083 1073 1064 1056 1048 1042 1036 1029 1024 1019 1014 1008 1003 997 992 987 980 973 963 954 944 933 922 910 899 889 881 876 873 871 871 872 875 877 879 879 876 872 865 856 846 834 820 807 793 777 761 744 727 711 693 675 654 632 610 585 558 529 498 466 433 400 368 335 305 275 245 216 186 157 128 101 78 57 39 24 14 6 2 -9999 -9999 -9999 -9999 -9999 -9999 -9999 -9999 -9999 -9999 -9999 -9999 -9999 -9999 -9999 -9999 -9999 -9999 -9999 -9999 -9999 -9999 -9999 -9999 -9999 -9999 -9999 -9999 -9999 -9999 -9999 -9999 -9999 -9999 -9999 -9999 -9999 -9999 -9999 -9999 -9999 -9999 -9999 -9999 -9999 -9999 -9999 -9999 -9999 -9999 -9999 -9999 -9999 -9999 -9999 -9999 -9999 -9999 -9999 -9999 -9999 -9999 -9999 -9999 -9999 -9999 -9999 -9999 -9999 -9999 -9999 -9999 -9999 -9999 -9999 -9999 -9999 -9999 -9999 -9999 -9999 -9999 -9999 -9999 -9999 -9999 -9999 -9999 -9999 -9999 -9999
1128 1126 1125 1125 1126 1128 1131 1135 1139 1143 1148 1152 1154 1153 1151 1146 1139 1130 1119 1108 1096 1085 1074 1064 1054 1045 1037 1029 1021 1014 1009 1003 998 993 990 986 982 977 970 962 953 943 933 921 909 898 889 882 878 875 874 875 877 880 883 885 884 882 877 871 862 851 840 827 813 800 784 768 752 735 718 701 682 661 638 615 590 563 534 502 470 438 406 373 341 311 281 252 223 194 164 135 108 84 62 43 28 17 9 4 1 -9999 -9999 -9999 -9999 -9999 -9999 -9999 -9999 -9999 -9999 -9999 -9999 -9999 -9999 -9999 -9999 -9999 -9999 -9999 -9999 -9999 -9999 -9999 -9999 -9999 -9999 -9999 -9999 -9999 -9999 -9999 -9999 -9999 -9999 -9999 -9999 -9999 -9999 -9999 -9999 -9999 -9999 -9999 -9999 -9999 -9999 -9999 -9999 -9999 -9999 -9999 -9999 -9999 -9999 -9999 -9999 -9999 -9999 -9999 -9999 -9999 -9999 -9999 -9999 -9999 -9999 -9999 -9999 -9999 -9999 -9999 -9999 -9999 -9999 -9999 -9999 -9999 -9999 -9999 -9999 -9999 -9999 -9999 -9999 -9999 -9999 -9999 -9999 -9999 -9999
1115 1114 1114 1115 1117 1120 1124 1129 1133 1139 1145 1150 1153 1153 1151 1147 1140 1132 1122 1111 1099 1088 1076 1065 1054 1043 1033 1023 1014 1006 999 993 988 984 982 980 978 974 968 961 952 943 933 921 909 898 890 883 880 878 878 879 882 885 888 890 889 886 882 875 866 855 844 831 819 805 790 774 758 741 725 707 687 665 643 619 595 567 538 506 474 442 410 379 348 317 288 259 231 202 173 144 117 92 70 51 34 22 13 7 4 2 1 -9999 -9999 -9999 -9999 -9999 -9999 -9999 -9999 -9999 -9999 -9999 -9999 -9999 -9999 -9999 -9999 -9999 -9999 -9999 -9999 -9999 -9999 -9999 -9999 -9999 -9999 -9999 -9999 -9999 -9999 -9999 -9999 -9999 -9999 -9999 -9999 -9999 -9999 -9999 -9999 -9999 -9999 -9999 -9999 -9999 -9999 -9999 -9999 -9999 -9999 -9999 -9999 -9999 -9999 -9999 -9999 -9999 -9999 -9999 -9999 -9999 -9999 -9999 -9999 -9999 -9999 -9999 -9999 -9999 -9999 -9999 -9999 -9999 -9999 -9999 -9999 -9999 -9999 -9999 -9999 -9999 -9999 -9999 -9999 -9999 -9999 -9999 -9999
1104 1104 1105 1107 1110 1114 1119 1124 1129 1135 1142 1147 1151 1152 1150 1147 1141 1134 1125 1114 1103 1091 1079 1067 1055 1043 1031 1019 1008 999 991 985 980 977 976 975 974 972 966 960 952 943 933 921 910 899 891 885 882 881 882 883 886 890 893 894 892 889 884 877 868 857 845 833 821 808 794 778 762 746 730 712 693 670 647 624 599 571 542 510 478 446 416 385 354 324 295 267 239 211 182 154 127 102 80 60 43 29 19 11 7 4 2 1 -9999 -9999 -9999 -9999 -9999 -9999 -9999 -9999 -9999 -9999 -9999 -9999 -9999 -9999 -9999 -9999 -9999 -9999 -9999 -9999 -9999 -9999 -9999 -9999 -9999 -9999 -9999 -9999 -9999 -9999 -9999 -9999 -9999 -9999 -9999 -9999 -9999 -9999 -9999 -9999 -9999 -9999 -9999 -9999 -9999 -9999 -9999 -9999 -9999 -9999 -9999 -9999 -9999 -9999 -9999 -9999 -9999 -9999 -9999 -9999 -9999 -9999 -9999 -9999 -9999 -9999 -9999 -9999 -9999 -9999 -9999 -9999 -9999 -9999 -9999 -9999 -9999 -9999 -9999 -9999 -9999 -9999 -9999 -9999 -9999 -9999 -9999
1096 1097 1098 1101 1105 1109 1115 1121 1127 1133 1140 1145 1149 1150 1149 1146 1141 1135 1127 1117 1106 1094 1082 1070 1056 1042 1029 1016 1003 993 985 978 973 971 971 971 971 969 965 959 952 943 933 922 911 901 893 888 885 884 885 887 891 894 896 896 894 890 884 876 867 855 843 831 820 808 795 780 765 749 734 717 698 676 652 628 603 576 547 515 483 452 421 391 361 332 303 276 249 221 193 166 139 114 92 72 53 39 27 18 12 8 5 3 1 1 -9999 -9999 -9999 -9999 -9999 -9999 -9999 -9999 -9999 -9999 -9999 -9999 -9999 -9999 -9999 -9999 -9999 -9999 -9999 -9999 -9999 -9999 -9999 -9999 -9999 -9999 -9999 -9999 -9999 -9999 -9999 -9999 -9999 -9999 -9999 -9999 -9999 -9999 -9999 -9999 -9999 -9999 -9999 -9999 -9999 -9999 -9999 -9999 -9999 -9999 -9999 -9999 -9999 -9999 -9999 -9999 -9999 -9999 -9999 -9999 -9999 -9999 -9999 -9999 -9999 -9999 -9999 -9999 -9999 -9999 -9999 -9999 -9999 -9999 -9999 -9999 -9999 -9999 -9999 -9999 -9999 -9999 -9999 -9999 -9999
1090 1092 1094 1098 1102 1107 1113 1119 1125 1131 1138 1143 1147 1148 1147 1145 1140 1135 1128 1119 1108 1096 1084 1071 1057 1042 1027 1013 1000 989 980 973 968 966 967 968 969 968 964 959 953 944 935 925 914 904 897 892 889 888 889 891 894 897 899 898 895 890 883 874 864 852 839 827 816 805 793 780 766 751 737 721 702 681 657 634 609 582 553 521 490 459 429 399 369 340 312 285 259 232 205 179 153 128 105 85 66 50 37 26 19 13 8 5 3 1 1 -9999 -9999 -9999 -9999 -9999 -9999 -9999 -9999 -9999 -9999 -9999 -9999 -9999 -9999 -9999 -9999 -9999 -9999 -9999 -9999 -9999 -9999 -9999 -9999 -9999 -9999 -9999 -9999 -9999 -9999 -9999 -9999 -9999 -9999 -9999 -9999 -9999 -9999 -9999 -9999 -9999 -9999 -9999 -9999 -9999 -9999 -9999 -9999 -9999 -9999 -9999 -9999 -9999 -9999 -9999 -9999 -9999 -9999 -9999 -9999 -9999 -9999 -9999 -9999 -9999 -9999 -9999 -9999 -9999 -9999 -9999 -9999 -9999 -9999 -9999 -9999 -9999 -9999 -9999 -9999 -9999 -9999 -9999 -9999
1087 1090 1093 1096 1101 1106 1112 1118 1124 1130 1135 1140 1144 1145 1145 1142 1138 1133 1127 1118 1108 1097 1085 1071 1057 1042 1027 1012 998 986 977 970 965 963 964 966 967 967 964 960 954 947 938 928 917 908 902 897 894 893 893 895 898 900 900 898 894 888 880 870 858 846 833 821 811 801 789 777 765 752 739 723 706 686 663 640 615 588 560 529 497 467 437 408 378 350 322 295 270 244 218 192 167 143 120 99 79 62 47 35 26 18 13 8 5 3 1 -9999 -9999 -9999 -9999 -9999 -9999 -9999 -9999 -9999 -9999 -9999 -9999 -9999 -9999 -9999 -9999 -9999 -9999 -9999 -9999 -9999 -9999 -9999 -9999 -9999 -9999 -9999 -9999 -9999 -9999 -9999 -9999 -9999 -9999 -9999 -9999 -9999 -9999 -9999 -9999 -9999 -9999 -9999 -9999 -9999 -9999 -9999 -9999 -9999 -9999 -9999 -9999 -9999 -9999 -9999 -9999 -9999 -9999 -9999 -9999 -9999 -9999 -9999 -9999 -9999 -9999 -9999 -9999 -9999 -9999 -9999 -9999 -9999 -9999 -9999 -9999 -9999 -9999 -9999 -9999 -9999 -9999 -9999 -9999
1087 1090 1094 1098 1102 1107 1112 1118 1124 1129 1134 1138 1141 1142 1141 1139 1135 1130 1124 1116 1107 1096 1084 1071 1057 1042 1026 1011 997 984 974 967 963 961 962 964 966 966 964 961 956 949 940 931 921 913 907 902 899 897 898 900 902 903 902 898 892 885 875 864 852 839 826 814 804 795 785 774 763 751 739 725 709 690 668 646 622 596 568 537 506 476 446 417 388 360 332 306 281 256 231 206 181 157 135 114 93 74 58 45 33 24 17 11 7 4 2 1 -9999 -9999 -9999 -9999 -9999 -9999 -9999 -9999 -9999 -9999 -9999 -9999 -9999 -9999 -9999 -9999 -9999 -9999 -9999 -9999 -9999 -9999 -9999 -9999 -9999 -9999 -9999 -9999 -9999 -9999 -9999 -9999 -9999 -9999 -9999 -9999 -9999 -9999 -9999 -9999 -9999 -9999 -9999 -9999 -9999 -9999 -9999 -9999 -9999 -9999 -9999 -9999 -9999 -9999 -9999 -9999 -9999 -9999 -9999 -9999 -9999 -9999 -9999 -9999 -9999 -9999 -9999 -9999 -9999 -9999 -9999 -9999 -9999 -9999 -9999 -9999 -9999 -9999 -9999 -9999 -9999 -9999 -9999
1090 1093 1097 1100 1104 1108 1113 1118 1123 1127 1131 1134 1137 1139 1138 1136 1132 1128 1122 1114 1105 1095 1083 1071 1056 1041 1025 1010 996 983 973 966 962 961 961 963 965 966 965 962 958 951 944 935 927 919 913 908 905 903 904 904 905 905 903 897 890 881 871 858 845 832 819 807 797 788 778 768 759 748 738 725 711 693 673 652 628 603 576 546 515 485 455 426 398 370 343 317 293 269 245 220 196 173 150 128 107 87 69 54 41 30 21 14 8 5 3 1 -9999 -9999 -9999 -9999 -9999 -9999 -9999 -9999 -9999 -9999 -9999 -9999 -9999 -9999 -9999 -9999 -9999 -9999 -9999 -9999 -9999 -9999 -9999 -9999 -9999 -9999 -9999 -9999 -9999 -9999 -9999 -9999 -9999 -9999 -9999 -9999 -9999 -9999 -9999 -9999 -9999 -9999 -9999 -9999 -9999 -9999 -9999 -9999 -9999 -9999 -9999 -9999 -9999 -9999 -9999 -9999 -9999 -9999 -9999 -9999 -9999 -9999 -9999 -9999 -9999 -9999 -9999 -9999 -9999 -9999 -9999 -9999 -9999 -9999 -9999 -9999 -9999 -9999 -9999 -9999 -9999 -9999 -9999
1094 1098 1101 1104 1107 1111 1114 1118 1122 1126 1128 1131 1134 1135 1135 1133 1129 1125 1120 1113 1104 1094 1082 1070 1055 1040 1024 1009 995 983 973 966 962 961 961 963 965 967 967 965 961 956 949 942 934 927 921 916 913 910 910 910 909 907 904 896 888 878 866 852 838 824 811 799 789 781 772 763 754 745 736 725 712 696 677 656 634 609 583 554 524 494 464 436 408 380 353 328 304 281 258 234 210 187 165 143 121 99 81 64 49 36 26 17 10 6 3 1 -9999 -9999 -9999 -9999 -9999 -9999 -9999 -9999 -9999 -9999 -9999 -9999 -9999 -9999 -9999 -9999 -9999 -9999 -9999 -9999 -9999 -9999 -9999 -9999 -9999 -9999 -9999 -9999 -9999 -9999 -9999 -9999 -9999 -9999 -9999 -9999 -9999 -9999 -9999 -9999 -9999 -9999 -9999 -9999 -9999 -9999 -9999 -9999 -9999 -9999 -9999 -9999 -9999 -9999 -9999 -9999 -9999 -9999 -9999 -9999 -9999 -9999 -9999 -9999 -9999 -9999 -9999 -9999 -9999 -9999 -9999 -9999 -9999 -9999 -9999 -9999 -9999 -9999 -9999 -9999 -9999 -9999 -9999
1100 1103 1106 1109 1111 1113 1116 1119 1122 1124 1126 1128 1130 1132 1132 1130 1127 1124 1118 1112 1103 1093 1081 1068 1054 1038 1023 1009 995 983 974 967 963 962 963 965 967 969 969 969 966 962 956 950 943 936 930 925 921 917 915 914 912 909 903 895 885 873 861 846 832 817 803 792 782 774 766 758 750 742 734 725 713 698 680 661 639 615 590 561 532 502 473 445 418 391 365 340 317 295 272 248 225 202 180 158 135 113 93 74 58 43 31 21 13 7 4 1 -9999 -9999 -9999 -9999 -9999 -9999 -9999 -9999 -9999 -9999 -9999 -9999 -9999 -9999 -9999 -9999 -9999 -9999 -9999 -9999 -9999 -9999 -9999 -9999 -9999 -9999 -9999 -9999 -9999 -9999 -9999 -9999 -9999 -9999 -9999 -9999 -9999 -9999 -9999 -9999 -9999 -9999 -9999 -9999 -9999 -9999 -9999 -9999 -9999 -9999 -9999 -9999 -9999 -9999 -9999 -9999 -9999 -9999 -9999 -9999 -9999 -9999 -9999 -9999 -9999 -9999 -9999 -9999 -9999 -9999 -9999 -9999 -9999 -9999 -9999 -9999 -9999 -9999 -9999 -9999 -9999 -9999 -9999
1105 1109 1111 1113 1114 1115 1117 1119 1122 1123 1124 1126 1128 1130 1130 1129 1126 1122 1117 1110 1102 1091 1079 1066 1051 1036 1021 1008 995 984 975 969 965 964 965 967 969 971 973 973 972 968 964 958 951 945 939 933 928 923 920 917 914 910 903 893 881 869 856 841 826 811 797 785 775 768 760 753 746 740 733 724 714 701 684 665 645 621 596 569 540 511 482 455 429 403 377 353 330 308 286 263 239 216 194 172 149 126 105 85 67 51 37 25 16 9 5 1 -9999 -9999 -9999 -9999 -9999 -9999 -9999 -9999 -9999 -9999 -9999 -9999 -9999 -9999 -9999 -9999 -9999 -9999 -9999 -9999 -9999 -9999 -9999 -9999 -9999 -9999 -9999 -9999 -9999 -9999 -9999 -9999 -9999 -9999 -9999 -9999 -9999 -9999 -9999 -9999 -9999 -9999 -9999 -9999 -9999 -9999 -9999 -9999 -9999 -9999 -9999 -9999 -9999 -9999 -9999 -9999 -9999 -9999 -9999 -9999 -9999 -9999 -9999 -9999 -9999 -9999 -9999 -9999 -9999 -9999 -9999 -9999 -9999 -9999 -9999 -9999 -9999 -9999 -9999 -9999 -9999 -9999 -9999
1110 1113 1116 1117 1117 1117 1118 1120 1122 1122 1123 1124 1126 1127 1128 1126 1124 1120 1115 1108 1099 1089 1077 1063 1049 1034 1020 1007 995 985 976 971 967 966 967 969 972 975 977 979 978 975 971 966 960 954 948 942 936 930 926 921 916 911 903 892 880 866 852 837 822 806 792 779 770 762 755 748 742 736 730 723 714 702 686 668 649 626 602 575 547 518 491 465 440 414 389 366 344 322 300 277 253 230 207 184 161 137 116 95 75 58 42 29 19 12 6 2 -9999 -9999 -9999 -9999 -9999 -9999 -9999 -9999 -9999 -9999 -9999 -9999 -9999 -9999 -9999 -9999 -9999 -9999 -9999 -9999 -9999 -9999 -9999 -9999 -9999 -9999 -9999 -9999 -9999 -9999 -9999 -9999 -9999 -9999 -9999 -9999 -9999 -9999 -9999 -9999 -9999 -9999 -9999 -9999 -9999 -9999 -9999 -9999 -9999 -9999 -9999 -9999 -9999 -9999 -9999 -9999 -9999 -9999 -9999 -9999 -9999 -9999 -9999 -9999 -9999 -9999 -9999 -9999 -9999 -9999 -9999 -9999 -9999 -9999 -9999 -9999 -9999 -9999 -9999 -9999 -9999 -9999 -9999
1114 1117 1119 1120 1120 1119 1119 1121 1122 1122 1122 1122 1124 1125 1126 1124 1121 1117 1112 1105 1097 1086 1075 1062 1048 1034 1020 1008 996 986 978 973 970 969 970 973 976 979 982 984 985 983 979 975 970 964 957 951 944 937 931 925 919 912 903 892 879 866 851 835 820 804 789 776 765 756 749 742 737 732 726 720 712 701 686 670 651 629 605 579 552 524 498 474 449 425 401 379 357 336 314 290 266 242 219 196 171 148 125 103 82 64 47 33 22 13 6 2 -9999 -9999 -9999 -9999 -9999 -9999 -9999 -9999 -9999 -9999 -9999 -9999 -9999 -9999 -9999 -9999 -9999 -9999 -9999 -9999 -9999 -9999 -9999 -9999 -9999 -9999 -9999 -9999 -9999 -9999 -9999 -9999 -9999 -9999 -9999 -9999 -9999 -9999 -9999 -9999 -9999 -9999 -9999 -9999 -9999 -9999 -9999 -9999 -9999 -9999 -9999 -9999 -9999 -9999 -9999 -9999 -9999 -9999 -9999 -9999 -9999 -9999 -9999 -9999 -9999 -9999 -9999 -9999 -9999 -9999 -9999 -9999 -9999 -9999 -9999 -9999 -9999 -9999 -9999 -9999 -9999 -9999 -9999
1117 1119 1121 1122 1121 1120 1120 1121 1121 1121 1121 1121 1122 1123 1123 1122 1119 1114 1109 1102 1094 1084 1073 1060 1047 1033 1021 1009 998 988 981 976 973 972 974 976 979 983 986 989 990 989 987 983 978 973 967 959 952 944 937 929 922 913 904 893 880 866 851 835 819 803 787 773 761 751 743 737 731 727 722 716 709 699 685 670 651 630 607 582 555 529 504 481 458 435 413 392 371 349 327 303 278 254 230 206 181 157 133 110 88 68 51 36 23 14 7 2 -9999 -9999 -9999 -9999 -9999 -9999 -9999 -9999 -9999 -9999 -9999 -9999 -9999 -9999 -9999 -9999 -9999 -9999 -9999 -9999 -9999 -9999 -9999 -9999 -9999 -9999 -9999 -9999 -9999 -9999 -9999 -9999 -9999 -9999 -9999 -9999 -9999 -9999 -9999 -9999 -9999 -9999 -9999 -9999 -9999 -9999 -9999 -9999 -9999 -9999 -9999 -9999 -9999 -9999 -9999 -9999 -9999 -9999 -9999 -9999 -9999 -9999 -9999 -9999 -9999 -9999 -9999 -9999 -9999 -9999 -9999 -9999 -9999 -9999 -9999 -9999 -9999 -9999 -9999 -9999 -9999 -9999 -9999
1117 1120 1121 1122 1121 1120 1120 1121 1121 1121 1120 1120 1121 1121 1121 1120 1116 1112 1106 1100 1092 1083 1072 1060 1046 1033 1022 1010 1000 991 983 979 976 975 977 979 982 986 990 993 995 994 993 990 986 981 975 968 960 951 943 934 926 916 906 895 883 869 854 838 821 804 787 772 759 748 740 733 727 723 719 713 707 697 684 668 650 629 606 582 557 532 509 487 466 445 425 404 384 362 339 315 290 265 240 215 190 165 141 117 94 72 54 38 25 14 7 2 -9999 -9999 -9999 -9999 -9999 -9999 -9999 -9999 -9999 -9999 -9999 -9999 -9999 -9999 -9999 -9999 -9999 -9999 -9999 -9999 -9999 -9999 -9999 -9999 -9999 -9999 -9999 -9999 -9999 -9999 -9999 -9999 -9999 -9999 -9999 -9999 -9999 -9999 -9999 -9999 -9999 -9999 -9999 -9999 -9999 -9999 -9999 -9999 -9999 -9999 -9999 -9999 -9999 -9999 -9999 -9999 -9999 -9999 -9999 -9999 -9999 -9999 -9999 -9999 -9999 -9999 -9999 -9999 -9999 -9999 -9999 -9999 -9999 -9999 -9999 -9999 -9999 -9999 -9999 -9999 -9999 -9999 -9999
1115 1117 1119 1120 1120 1120 1120 1120 1121 1121 1120 1119 1120 1120 1119 1118 1115 1110 1105 1099 1091 1082 1072 1060 1047 1035 1024 1013 1003 994 987 983 980 979 980 982 985 989 993 996 998 999 998 996 993 989 983 975 967 958 948 939 929 919 910 899 886 872 857 841 824 806 789 773 758 747 737 730 724 720 715 709 702 693 679 663 646 625 602 580 556 533 512 493 473 453 434 415 394 372 349 324 299 273 248 223 197 172 147 122 98 75 56 39 25 15 6 2 -9999 -9999 -9999 -9999 -9999 -9999 -9999 -9999 -9999 -9999 -9999 -9999 -9999 -9999 -9999 -9999 -9999 -9999 -9999 -9999 -9999 -9999 -9999 -9999 -9999 -9999 -9999 -9999 -9999 -9999 -9999 -9999 -9999 -9999 -9999 -9999 -9999 -9999 -9999 -9999 -9999 -9999 -9999 -9999 -9999 -9999 -9999 -9999 -9999 -9999 -9999 -9999 -9999 -9999 -9999 -9999 -9999 -9999 -9999 -9999 -9999 -9999 -9999 -9999 -9999 -9999 -9999 -9999 -9999 -9999 -9999 -9999 -9999 -9999 -9999 -9999 -9999 -9999 -9999 -9999 -9999 -9999 -9999
1112 1114 1116 1117 1118 1118 1119 1120 1121 1120 1120 1119 1119 1119 1118 1117 1113 1109 1104 1098 1091 1083 1072 1061 1049 1037 1027 1017 1007 998 992 987 985 984 984 985 988 992 996 999 1001 1002 1002 1000 998 994 988 981 972 963 953 943 933 923 914 903 891 877 862 846 828 810 792 775 759 746 736 728 721 716 711 704 697 686 673 657 639 618 597 575 554 532 513 495 477 458 440 421 401 379 355 330 305 279 254 228 203 178 152 126 101 78 57 40 26 15 6 2 -9999 -9999 -9999 -9999 -9999 -9999 -9999 -9999 -9999 -9999 -9999 -9999 -9999 -9999 -9999 -9999 -9999 -9999 -9999 -9999 -9999 -9999 -9999 -9999 -9999 -9999 -9999 -9999 -9999 -9999 -9999 -9999 -9999 -9999 -9999 -9999 -9999 -9999 -9999 -9999 -9999 -9999 -9999 -9999 -9999 -9999 -9999 -9999 -9999 -9999 -9999 -9999 -9999 -9999 -9999 -9999 -9999 -9999 -9999 -9999 -9999 -9999 -9999 -9999 -9999 -9999 -9999 -9999 -9999 -9999 -9999 -9999 -9999 -9999 -9999 -9999 -9999 -9999 -9999 -9999 -9999 -9999 -9999
1108 1110 1112 1114 1115 1116 1117 1119 1121 1121 1120 1120 1119 1119 1118 1117 1113 1109 1104 1098 1092 1084 1074 1063 1052 1041 1032 1022 1012 1004 997 993 990 989 989 990 992 995 999 1001 1003 1004 1004 1002 1000 997 991 984 977 968 958 948 938 928 919 909 898 884 868 852 834 815 796 777 760 746 734 725 718 712 706 699 690 679 665 649 631 611 590 569 549 530 512 496 479 462 444 426 405 383 359 334 308 282 257 232 206 181 155 129 103 80 59 41 27 15 6 1 -9999 -9999 -9999 -9999 -9999 -9999 -9999 -9999 -9999 -9999 -9999 -9999 -9999 -9999 -9999 -9999 -9999 -9999 -9999 -9999 -9999 -9999 -9999 -9999 -9999 -9999 -9999 -9999 -9999 -9999 -9999 -9999 -9999 -9999 -9999 -9999 -9999 -9999 -9999 -9999 -9999 -9999 -9999 -9999 -9999 -9999 -9999 -9999 -9999 -9999 -9999 -9999 -9999 -9999 -9999 -9999 -9999 -9999 -9999 -9999 -9999 -9999 -9999 -9999 -9999 -9999 -9999 -9999 -9999 -9999 -9999 -9999 -9999 -9999 -9999 -9999 -9999 -9999 -9999 -9999 -9999 -9999 -9999
1104 1106 1108 1110 1112 1113 1115 1118 1119 1120 1120 1120 1119 1118 1118 1116 1112 1108 1103 1098 1092 1085 1076 1066 1056 1046 1038 1028 1019 1010 1003 999 996 995 995 994 996 998 1001 1002 1004 1004 1003 1002 1001 998 993 987 980 972 962 952 943 934 925 916 904 891 876 859 840 821 800 780 761 746 733 722 714 707 699 691 682 670 656 640 622 602 581 562 543 525 509 494 479 463 446 427 407 385 361 335 309 283 257 232 207 182 156 129 104 80 59 41 26 15 6 1 -9999 -9999 -9999 -9999 -9999 -9999 -9999 -9999 -9999 -9999 -9999 -9999 -9999 -9999 -9999 -9999 -9999 -9999 -9999 -9999 -9999 -9999 -9999 -9999 -9999 -9999 -9999 -9999 -9999 -9999 -9999 -9999 -9999 -9999 -9999 -9999 -9999 -9999 -9999 -9999 -9999 -9999 -9999 -9999 -9999 -9999 -9999 -9999 -9999 -9999 -9999 -9999 -9999 -9999 -9999 -9999 -9999 -9999 -9999 -9999 -9999 -9999 -9999 -9999 -9999 -9999 -9999 -9999 -9999 -9999 -9999 -9999 -9999 -9999 -9999 -9999 -9999 -9999 -9999 -9999 -9999 -9999 -9999
1100 1101 1102 1104 1107 1109 1111 1114 1116 1117 1117 1118 1117 1116 1115 1113 1110 1106 1102 1097 1092 1086 1078 1069 1060 1051 1043 1034 1025 1016 1010 1005 1003 1002 1000 999 1000 1001 1002 1003 1002 1002 1001 1000 999 997 993 987 981 973 964 955 946 938 930 921 911 898 883 866 847 826 805 783 763 746 731 719 709 701 692 682 672 659 645 628 610 590 571 553 535 519 505 491 477 461 445 426 406 383 359 333 307 281 256 231 206 180 154 127 102 79 58 40 25 14 6 1 -9999 -9999 -9999 -9999 -9999 -9999 -9999 -9999 -9999 -9999 -9999 -9999 -9999 -9999 -9999 -9999 -9999 -9999 -9999 -9999 -9999 -9999 -9999 -9999 -9999 -9999 -9999 -9999 -9999 -9999 -9999 -9999 -9999 -9999 -9999 -9999 -9999 -9999 -9999 -9999 -9999 -9999 -9999 -9999 -9999 -9999 -9999 -9999 -9999 -9999 -9999 -9999 -9999 -9999 -9999 -9999 -9999 -9999 -9999 -9999 -9999 -9999 -9999 -9999 -9999 -9999 -9999 -9999 -9999 -9999 -9999 -9999 -9999 -9999 -9999 -9999 -9999 -9999 -9999 -9999 -9999 -9999 -9999
1095 1095 1095 1098 1100 1103 1105 1108 1110 1111 1113 1113 1113 1112 1111 1109 1106 1103 1099 1095 1090 1085 1078 1071 1063 1055 1048 1039 1030 1022 1016 1012 1009 1007 1005 1003 1003 1003 1003 1002 1001 1000 998 997 996 994 990 985 979 973 965 957 948 941 934 926 916 904 889 872 852 831 809 786 765 747 730 717 705 695 685 674 662 648 632 615 598 578 560 543 527 512 499 486 473 457 441 423 403 380 356 330 304 278 253 229 203 177 151 124 99 76 56 38 23 12 5 1 -9999 -9999 -9999 -9999 -9999 -9999 -9999 -9999 -9999 -9999 -9999 -9999 -9999 -9999 -9999 -9999 -9999 -9999 -9999 -9999 -9999 -9999 -9999 -9999 -9999 -9999 -9999 -9999 -9999 -9999 -9999 -9999 -9999 -9999 -9999 -9999 -9999 -9999 -9999 -9999 -9999 -9999 -9999 -9999 -9999 -9999 -9999 -9999 -9999 -9999 -9999 -9999 -9999 -9999 -9999 -9999 -9999 -9999 -9999 -9999 -9999 -9999 -9999 -9999 -9999 -9999 -9999 -9999 -9999 -9999 -9999 -9999 -9999 -9999 -9999 -9999 -9999 -9999 -9999 -9999 -9999 -9999 -9999
1088 1088 1088 1090 1093 1096 1098 1101 1103 1105 1107 1109 1109 1108 1106 1105 1102 1099 1096 1092 1088 1083 1078 1071 1065 1058 1052 1044 1035 1028 1022 1018 1015 1012 1010 1007 1006 1005 1004 1001 999 996 994 993 991 989 985 981 976 970 964 956 948 941 935 927 918 907 893 875 856 835 813 790 768 749 732 716 704 692 679 666 652 637 621 604 586 567 549 533 518 505 492 480 467 452 435 417 397 375 351 325 299 273 249 225 199 173 147 120 96 74 53 36 22 11 4 -9999 -9999 -9999 -9999 -9999 -9999 -9999 -9999 -9999 -9999 -9999 -9999 -9999 -9999 -9999 -9999 -9999 -9999 -9999 -9999 -9999 -9999 -9999 -9999 -9999 -9999 -9999 -9999 -9999 -9999 -9999 -9999 -9999 -9999 -9999 -9999 -9999 -9999 -9999 -9999 -9999 -9999 -9999 -9999 -9999 -9999 -9999 -9999 -9999 -9999 -9999 -9999 -9999 -9999 -9999 -9999 -9999 -9999 -9999 -9999 -9999 -9999 -9999 -9999 -9999 -9999 -9999 -9999 -9999 -9999 -9999 -9999 -9999 -9999 -9999 -9999 -9999 -9999 -9999 -9999 -9999 -9999 -9999 -9999
1081 1080 1080 1081 1084 1087 1090 1093 1096 1098 1101 1104 1104 1104 1103 1101 1100 1097 1094 1090 1085 1081 1077 1072 1067 1061 1055 1048 1041 1034 1028 1024 1020 1017 1014 1011 1009 1007 1004 1000 996 993 990 988 986 983 979 975 970 965 959 953 946 939 934 926 918 907 893 876 857 837 815 792 771 751 733 717 703 690 675 660 645 628 611 593 575 557 539 524 510 497 485 473 460 444 427 409 389 366 343 317 291 267 243 219 194 168 142 116 93 71 51 34 20 10 4 -9999 -9999 -9999 -9999 -9999 -9999 -9999 -9999 -9999 -9999 -9999 -9999 -9999 -9999 -9999 -9999 -9999 -9999 -9999 -9999 -9999 -9999 -9999 -9999 -9999 -9999 -9999 -9999 -9999 -9999 -9999 -9999 -9999 -9999 -9999 -9999 -9999 -9999 -9999 -9999 -9999 -9999 -9999 -9999 -9999 -9999 -9999 -9999 -9999 -9999 -9999 -9999 -9999 -9999 -9999 -9999 -9999 -9999 -9999 -9999 -9999 -9999 -9999 -9999 -9999 -9999 -9999 -9999 -9999 -9999 -9999 -9999 -9999 -9999 -9999 -9999 -9999 -9999 -9999 -9999 -9999 -9999 -9999 -9999
1074 1073 1072 1073 1076 1079 1082 1086 1089 1093 1096 1100 1102 1102 1101 1100 1098 1096 1092 1088 1084 1080 1077 1073 1069 1064 1059 1053 1046 1040 1034 1030 1026 1022 1018 1014 1011 1008 1004 999 994 990 986 983 980 976 972 967 962 958 953 947 940 935 929 923 914 904 891 875 857 837 815 793 772 752 734 717 702 687 672 655 638 621 603 585 567 548 531 515 501 488 476 464 450 434 416 398 377 355 332 307 282 258 235 212 188 163 137 112 89 68 49 32 19 9 3 -9999 -9999 -9999 -9999 -9999 -9999 -9999 -9999 -9999 -9999 -9999 -9999 -9999 -9999 -9999 -9999 -9999 -9999 -9999 -9999 -9999 -9999 -9999 -9999 -9999 -9999 -9999 -9999 -9999 -9999 -9999 -9999 -9999 -9999 -9999 -9999 -9999 -9999 -9999 -9999 -9999 -9999 -9999 -9999 -9999 -9999 -9999 -9999 -9999 -9999 -9999 -9999 -9999 -9999 -9999 -9999 -9999 -9999 -9999 -9999 -9999 -9999 -9999 -9999 -9999 -9999 -9999 -9999 -9999 -9999 -9999 -9999 -9999 -9999 -9999 -9999 -9999 -9999 -9999 -9999 -9999 -9999 -9999 -9999
1068 1065 1064 1065 1067 1071 1074 1078 1082 1087 1092 1097 1099 1100 1100 1099 1098 1095 1092 1088 1083 1080 1077 1074 1071 1067 1062 1057 1051 1046 1040 1036 1032 1028 1023 1019 1015 1010 1005 999 993 987 983 979 974 970 965 959 954 950 945 939 934 928 923 917 909 900 888 872 855 835 814 793 772 753 734 716 700 684 668 651 633 616 597 579 560 541 524 508 494 480 467 454 439 423 405 386 366 344 320 296 272 249 226 205 181 157 132 108 86 66 47 31 18 9 3 -9999 -9999 -9999 -9999 -9999 -9999 -9999 -9999 -9999 -9999 -9999 -9999 -9999 -9999 -9999 -9999 -9999 -9999 -9999 -9999 -9999 -9999 -9999 -9999 -9999 -9999 -9999 -9999 -9999 -9999 -9999 -9999 -9999 -9999 -9999 -9999 -9999 -9999 -9999 -9999 -9999 -9999 -9999 -9999 -9999 -9999 -9999 -9999 -9999 -9999 -9999 -9999 -9999 -9999 -9999 -9999 -9999 -9999 -9999 -9999 -9999 -9999 -9999 -9999 -9999 -9999 -9999 -9999 -9999 -9999 -9999 -9999 -9999 -9999 -9999 -9999 -9999 -9999 -9999 -9999 -9999 -9999 -9999 -9999
1060 1057 1056 1056 1059 1063 1067 1071 1076 1081 1087 1093 1097 1099 1099 1098 1097 1096 1092 1088 1084 1081 1078 1076 1074 1070 1067 1062 1057 1053 1048 1044 1039 1034 1029 1024 1019 1013 1006 999 992 986 980 975 970 964 958 952 946 942 937 931 926 920 915 909 902 893 882 868 851 832 812 792 772 752 734 716 699 683 666 649 631 613 595 576 556 537 519 502 487 472 458 444 429 412 394 375 355 333 310 286 262 240 218 197 174 150 126 103 82 63 45 30 18 9 3 -9999 -9999 -9999 -9999 -9999 -9999 -9999 -9999 -9999 -9999 -9999 -9999 -9999 -9999 -9999 -9999 -9999 -9999 -9999 -9999 -9999 -9999 -9999 -9999 -9999 -9999 -9999 -9999 -9999 -9999 -9999 -9999 -9999 -9999 -9999 -9999 -9999 -9999 -9999 -9999 -9999 -9999 -9999 -9999 -9999 -9999 -9999 -9999 -9999 -9999 -9999 -9999 -9999 -9999 -9999 -9999 -9999 -9999 -9999 -9999 -9999 -9999 -9999 -9999 -9999 -9999 -9999 -9999 -9999 -9999 -9999 -9999 -9999 -9999 -9999 -9999 -9999 -9999 -9999 -9999 -9999 -9999 -9999 -9999
1052 1049 1047 1047 1050 1054 1059 1064 1069 1076 1083 1090 1095 1098 1099 1098 1098 1097 1094 1090 1086 1083 1081 1079 1078 1075 1071 1068 1064 1061 1057 1052 1047 1042 1037 1031 1025 1017 1009 1001 993 986 979 973 967 960 953 946 940 934 929 923 917 911 906 900 894 885 874 861 845 827 809 789 770 752 733 716 699 682 665 647 629 611 593 573 553 533 514 497 481 464 449 433 418 401 383 364 344 322 299 276 253 231 209 188 166 143 120 98 78 59 43 28 16 8 3 -9999 -9999 -9999 -9999 -9999 -9999 -9999 -9999 -9999 -9999 -9999 -9999 -9999 -9999 -9999 -9999 -9999 -9999 -9999 -9999 -9999 -9999 -9999 -9999 -9999 -9999 -9999 -9999 -9999 -9999 -9999 -9999 -9999 -9999 -9999 -9999 -9999 -9999 -9999 -9999 -9999 -9999 -9999 -9999 -9999 -9999 -9999 -9999 -9999 -9999 -9999 -9999 -9999 -9999 -9999 -9999 -9999 -9999 -9999 -9999 -9999 -9999 -9999 -9999 -9999 -9999 -9999 -9999 -9999 -9999 -9999 -9999 -9999 -9999 -9999 -9999 -9999 -9999 -9999 -9999 -9999 -9999 -9999 -9999
1042 1039 1038 1038 1041 1046 1052 1057 1063 1070 1079 1087 1094 1098 1099 1100 1101 1101 1098 1094 1091 1088 1086 1084 1083 1081 1078 1075 1072 1069 1066 1061 1056 1051 1045 1038 1032 1023 1014 1005 996 988 981 974 966 958 950 942 934 928 923 916 909 903 897 891 885 876 865 852 838 821 804 786 768 751 733 715 698 681 664 646 628 610 591 570 550 529 509 491 474 457 440 423 407 390 372 353 333 312 290 267 245 224 202 181 159 136 114 93 74 56 40 26 15 7 3 -9999 -9999 -9999 -9999 -9999 -9999 -9999 -9999 -9999 -9999 -9999 -9999 -9999 -9999 -9999 -9999 -9999 -9999 -9999 -9999 -9999 -9999 -9999 -9999 -9999 -9999 -9999 -9999 -9999 -9999 -9999 -9999 -9999 -9999 -9999 -9999 -9999 -9999 -9999 -9999 -9999 -9999 -9999 -9999 -9999 -9999 -9999 -9999 -9999 -9999 -9999 -9999 -9999 -9999 -9999 -9999 -9999 -9999 -9999 -9999 -9999 -9999 -9999 -9999 -9999 -9999 -9999 -9999 -9999 -9999 -9999 -9999 -9999 -9999 -9999 -9999 -9999 -9999 -9999 -9999 -9999 -9999 -9999 -9999
1032 1030 1028 1029 1033 1038 1044 1050 1057 1065 1075 1085 1093 1098 1101 1104 1105 1106 1103 1100 1097 1094 1092 1091 1089 1087 1085 1083 1081 1078 1075 1070 1065 1059 1052 1045 1038 1029 1020 1010 1001 992 984 976 968 959 950 940 932 925 918 911 904 896 889 883 876 867 856 843 829 815 799 783 766 749 732 715 697 680 662 644 626 607 588 567 546 525 505 486 468 450 431 413 396 379 361 343 323 302 281 259 238 217 196 175 153 131 109 89 70 53 38 25 15 7 3 1 -9999 -9999 -9999 -9999 -9999 -9999 -9999 -9999 -9999 -9999 -9999 -9999 -9999 -9999 -9999 -9999 -9999 -9999 -9999 -9999 -9999 -9999 -9999 -9999 -9999 -9999 -9999 -9999 -9999 -9999 -9999 -9999 -9999 -9999 -9999 -9999 -9999 -9999 -9999 -9999 -9999 -9999 -9999 -9999 -9999 -9999 -9999 -9999 -9999 -9999 -9999 -9999 -9999 -9999 -9999 -9999 -9999 -9999 -9999 -9999 -9999 -9999 -9999 -9999 -9999 -9999 -9999 -9999 -9999 -9999 -9999 -9999 -9999 -9999 -9999 -9999 -9999 -9999 -9999 -9999 -9999 -9999 -9999
1023 1021 1020 1021 1024 1030 1037 1044 1052 1061 1072 1083 1092 1099 1104 1108 1111 1111 1110 1107 1104 1102 1100 1098 1097 1096 1094 1092 1090 1088 1084 1079 1073 1066 1059 1052 1044 1035 1025 1015 1006 997 989 980 971 961 951 941 932 924 917 908 900 891 883 876 868 858 847 835 822 808 793 778 763 747 730 713 696 678 660 642 623 604 584 563 541 520 500 480 462 442 422 403 385 369 351 333 314 294 273 252 232 211 190 169 148 126 105 85 67 50 36 24 14 7 3 1 -9999 -9999 -9999 -9999 -9999 -9999 -9999 -9999 -9999 -9999 -9999 -9999 -9999 -9999 -9999 -9999 -9999 -9999 -9999 -9999 -9999 -9999 -9999 -9999 -9999 -9999 -9999 -9999 -9999 -9999 -9999 -9999 -9999 -9999 -9999 -9999 -9999 -9999 -9999 -9999 -9999 -9999 -9999 -9999 -9999 -9999 -9999 -9999 -9999 -9999 -9999 -9999 -9999 -9999 -9999 -9999 -9999 -9999 -9999 -9999 -9999 -9999 -9999 -9999 -9999 -9999 -9999 -9999 -9999 -9999 -9999 -9999 -9999 -9999 -9999 -9999 -9999 -9999 -9999 -9999 -9999 -9999 -9999
1015 1013 1013 1014 1017 1024 1031 1039 1048 1058 1070 1082 1092 1101 1107 1112 1116 1117 1116 1114 1112 1110 1109 1108 1107 1105 1104 1102 1101 1098 1094 1088 1082 1074 1066 1058 1050 1040 1030 1020 1011 1002 994 985 975 965 954 943 934 925 917 907 898 888 879 870 862 852 840 828 815 802 788 774 759 744 728 711 693 675 657 638 619 600 580 559 536 515 494 474 455 434 414 394 376 359 342 325 306 286 266 246 227 206 186 165 143 121 101 82 64 48 34 22 13 7 3 1 -9999 -9999 -9999 -9999 -9999 -9999 -9999 -9999 -9999 -9999 -9999 -9999 -9999 -9999 -9999 -9999 -9999 -9999 -9999 -9999 -9999 -9999 -9999 -9999 -9999 -9999 -9999 -9999 -9999 -9999 -9999 -9999 -9999 -9999 -9999 -9999 -9999 -9999 -9999 -9999 -9999 -9999 -9999 -9999 -9999 -9999 -9999 -9999 -9999 -9999 -9999 -9999 -9999 -9999 -9999 -9999 -9999 -9999 -9999 -9999 -9999 -9999 -9999 -9999 -9999 -9999 -9999 -9999 -9999 -9999 -9999 -9999 -9999 -9999 -9999 -9999 -9999 -9999 -9999 -9999 -9999 -9999 -9999
1011 1009 1008 1009 1013 1019 1028 1036 1045 1057 1069 1081 1092 1101 1109 1115 1119 1122 1122 1121 1119 1119 1118 1117 1117 1116 1114 1113 1111 1109 1104 1098 1090 1082 1074 1066 1057 1047 1036 1026 1017 1008 999 989 979 968 957 946 936 927 917 907 897 886 875 866 856 846 834 822 809 796 783 769 755 740 724 707 689 670 652 633 614 595 575 553 531 509 488 468 448 427 406 386 368 352 335 318 300 281 262 243 223 203 182 161 139 118 97 79 61 46 32 21 13 7 3 1 -9999 -9999 -9999 -9999 -9999 -9999 -9999 -9999 -9999 -9999 -9999 -9999 -9999 -9999 -9999 -9999 -9999 -9999 -9999 -9999 -9999 -9999 -9999 -9999 -9999 -9999 -9999 -9999 -9999 -9999 -9999 -9999 -9999 -9999 -9999 -9999 -9999 -9999 -9999 -9999 -9999 -9999 -9999 -9999 -9999 -9999 -9999 -9999 -9999 -9999 -9999 -9999 -9999 -9999 -9999 -9999 -9999 -9999 -9999 -9999 -9999 -9999 -9999 -9999 -9999 -9999 -9999 -9999 -9999 -9999 -9999 -9999 -9999 -9999 -9999 -9999 -9999 -9999 -9999 -9999 -9999 -9999 -9999
1008 1006 1006 1007 1011 1017 1025 1034 1044 1055 1067 1080 1092 1102 1110 1117 1123 1126 1127 1127 1127 1127 1127 1127 1127 1126 1125 1124 1122 1119 1114 1107 1099 1091 1082 1074 1064 1053 1042 1032 1023 1013 1003 993 982 971 960 949 939 929 919 908 897 885 873 862 852 840 828 816 804 791 778 765 751 736 720 703 685 666 647 628 608 589 569 547 524 502 482 461 441 421 400 379 362 346 330 314 297 278 260 241 221 201 180 158 136 115 95 77 59 44 32 21 13 7 3 1 -9999 -9999 -9999 -9999 -9999 -9999 -9999 -9999 -9999 -9999 -9999 -9999 -9999 -9999 -9999 -9999 -9999 -9999 -9999 -9999 -9999 -9999 -9999 -9999 -9999 -9999 -9999 -9999 -9999 -9999 -9999 -9999 -9999 -9999 -9999 -9999 -9999 -9999 -9999 -9999 -9999 -9999 -9999 -9999 -9999 -9999 -9999 -9999 -9999 -9999 -9999 -9999 -9999 -9999 -9999 -9999 -9999 -9999 -9999 -9999 -9999 -9999 -9999 -9999 -9999 -9999 -9999 -9999 -9999 -9999 -9999 -9999 -9999 -9999 -9999 -9999 -9999 -9999 -9999 -9999 -9999 -9999 -9999
1009 1007 1006 1008 1011 1017 1025 1034 1044 1055 1068 1080 1092 1103 1113 1120 1126 1131 1133 1133 1134 1135 1136 1137 1137 1137 1136 1134 1132 1128 1123 1116 1107 1098 1089 1080 1070 1060 1048 1038 1029 1019 1009 998 986 975 964 953 942 931 921 910 897 885 872 860 849 837 825 812 800 787 775 762 748 733 717 700 681 662 642 623 603 583 563 541 518 497 476 456 436 415 394 375 357 342 327 311 295 277 259 240 221 200 178 156 134 113 94 76 59 44 31 21 14 8 4 1 -9999 -9999 -9999 -9999 -9999 -9999 -9999 -9999 -9999 -9999 -9999 -9999 -9999 -9999 -9999 -9999 -9999 -9999 -9999 -9999 -9999 -9999 -9999 -9999 -9999 -9999 -9999 -9999 -9999 -9999 -9999 -9999 -9999 -9999 -9999 -9999 -9999 -9999 -9999 -9999 -9999 -9999 -9999 -9999 -9999 -9999 -9999 -9999 -9999 -9999 -9999 -9999 -9999 -9999 -9999 -9999 -9999 -9999 -9999 -9999 -9999 -9999 -9999 -9999 -9999 -9999 -9999 -9999 -9999 -9999 -9999 -9999 -9999 -9999 -9999 -9999 -9999 -9999 -9999 -9999 -9999 -9999 -9999
1013 1011 1010 1011 1014 1019 1027 1035 1045 1057 1069 1082 1094 1105 1115 1123 1130 1135 1138 1139 1140 1142 1144 1145 1146 1146 1145 1143 1141 1136 1130 1122 1113 1103 1093 1084 1075 1065 1054 1044 1034 1024 1014 1003 991 979 968 957 945 934 923 911 899 886 872 860 847 835 823 810 798 785 773 760 746 731 714 697 678 658 638 618 597 577 557 535 512 491 471 451 431 411 391 372 355 340 326 310 294 277 259 240 220 199 177 155 133 112 93 76 59 44 32 22 15 9 5 2 -9999 -9999 -9999 -9999 -9999 -9999 -9999 -9999 -9999 -9999 -9999 -9999 -9999 -9999 -9999 -9999 -9999 -9999 -9999 -9999 -9999 -9999 -9999 -9999 -9999 -9999 -9999 -9999 -9999 -9999 -9999 -9999 -9999 -9999 -9999 -9999 -9999 -9999 -9999 -9999 -9999 -9999 -9999 -9999 -9999 -9999 -9999 -9999 -9999 -9999 -9999 -9999 -9999 -9999 -9999 -9999 -9999 -9999 -9999 -9999 -9999 -9999 -9999 -9999 -9999 -9999 -9999 -9999 -9999 -9999 -9999 -9999 -9999 -9999 -9999 -9999 -9999 -9999 -9999 -9999 -9999 -9999 -9999
1019 1017 1015 1016 1018 1023 1030 1039 1049 1060 1072 1085 1098 1108 1118 1126 1133 1138 1141 1143 1145 1148 1151 1153 1154 1155 1154 1152 1149 1144 1137 1128 1119 1108 1098 1088 1079 1069 1058 1048 1039 1028 1019 1007 995 983 971 960 948 937 925 913 900 887 873 860 847 835 822 810 798 785 773 760 746 730 713 695 676 655 635 614 593 573 552 531 508 488 467 447 428 408 389 371 355 340 326 311 295 278 259 240 220 199 177 155 133 112 94 77 60 46 34 24 16 10 6 2 -9999 -9999 -9999 -9999 -9999 -9999 -9999 -9999 -9999 -9999 -9999 -9999 -9999 -9999 -9999 -9999 -9999 -9999 -9999 -9999 -9999 -9999 -9999 -9999 -9999 -9999 -9999 -9999 -9999 -9999 -9999 -9999 -9999 -9999 -9999 -9999 -9999 -9999 -9999 -9999 -9999 -9999 -9999 -9999 -9999 -9999 -9999 -9999 -9999 -9999 -9999 -9999 -9999 -9999 -9999 -9999 -9999 -9999 -9999 -9999 -9999 -9999 -9999 -9999 -9999 -9999 -9999 -9999 -9999 -9999 -9999 -9999 -9999 -9999 -9999 -9999 -9999 -9999 -9999 -9999 -9999 -9999 -9999
1028 1025 1023 1023 1025 1030 1036 1044 1054 1065 1078 1091 1102 1112 1121 1129 1135 1140 1144 1147 1149 1153 1156 1159 1162 1163 1162 1160 1156 1151 1143 1134 1123 1112 1102 1092 1082 1072 1061 1052 1042 1032 1022 1011 998 986 974 962 950 938 926 914 901 888 874 861 848 835 823 811 799 787 774 761 747 731 713 695 675 654 633 612 591 570 550 529 507 487 466 447 428 409 391 374 358 343 329 313 297 280 261 242 221 199 177 154 133 114 96 79 63 49 37 27 19 12 7 3 1 -9999 -9999 -9999 -9999 -9999 -9999 -9999 -9999 -9999 -9999 -9999 -9999 -9999 -9999 -9999 -9999 -9999 -9999 -9999 -9999 -9999 -9999 -9999 -9999 -9999 -9999 -9999 -9999 -9999 -9999 -9999 -9999 -9999 -9999 -9999 -9999 -9999 -9999 -9999 -9999 -9999 -9999 -9999 -9999 -9999 -9999 -9999 -9999 -9999 -9999 -9999 -9999 -9999 -9999 -9999 -9999 -9999 -9999 -9999 -9999 -9999 -9999 -9999 -9999 -9999 -9999 -9999 -9999 -9999 -9999 -9999 -9999 -9999 -9999 -9999 -9999 -9999 -9999 -9999 -9999 -9999 -9999
1039 1036 1033 1033 1034 1038 1044 1052 1062 1073 1085 1097 1108 1117 1125 1132 1138 1143 1147 1150 1153 1157 1162 1166 1168 1170 1169 1167 1163 1157 1149 1139 1128 1117 1106 1096 1086 1075 1064 1055 1045 1035 1024 1013 1000 988 976 964 952 939 927 915 902 889 876 862 849 836 824 813 802 789 777 763 749 733 715 697 676 655 634 613 592 571 551 531 510 489 469 450 431 413 395 378 363 348 334 318 301 283 264 244 222 200 177 155 134 115 97 81 66 52 40 30 21 14 9 5 2 -9999 -9999 -9999 -9999 -9999 -9999 -9999 -9999 -9999 -9999 -9999 -9999 -9999 -9999 -9999 -9999 -9999 -9999 -9999 -9999 -9999 -9999 -9999 -9999 -9999 -9999 -9999 -9999 -9999 -9999 -9999 -9999 -9999 -9999 -9999 -9999 -9999 -9999 -9999 -9999 -9999 -9999 -9999 -9999 -9999 -9999 -9999 -9999 -9999 -9999 -9999 -9999 -9999 -9999 -9999 -9999 -9999 -9999 -9999 -9999 -9999 -9999 -9999 -9999 -9999 -9999 -9999 -9999 -9999 -9999 -9999 -9999 -9999 -9999 -9999 -9999 -9999 -9999 -9999 -9999 -9999 -9999
1052 1048 1045 1045 1046 1049 1055 1062 1071 1082 1093 1104 1114 1122 1130 1136 1141 1146 1150 1153 1157 1162 1167 1172 1175 1176 1175 1172 1169 1163 1155 1145 1134 1122 1112 1102 1091 1079 1068 1058 1047 1036 1026 1014 1001 989 977 965 952 940 928 916 903 890 877 863 850 837 826 816 805 793 780 767 752 736 718 699 679 657 637 616 596 575 556 536 515 495 476 456 438 419 402 386 370 356 341 324 307 288 268 247 224 201 178 155 134 116 99 84 69 55 43 32 24 17 11 6 2 -9999 -9999 -9999 -9999 -9999 -9999 -9999 -9999 -9999 -9999 -9999 -9999 -9999 -9999 -9999 -9999 -9999 -9999 -9999 -9999 -9999 -9999 -9999 -9999 -9999 -9999 -9999 -9999 -9999 -9999 -9999 -9999 -9999 -9999 -9999 -9999 -9999 -9999 -9999 -9999 -9999 -9999 -9999 -9999 -9999 -9999 -9999 -9999 -9999 -9999 -9999 -9999 -9999 -9999 -9999 -9999 -9999 -9999 -9999 -9999 -9999 -9999 -9999 -9999 -9999 -9999 -9999 -9999 -9999 -9999 -9999 -9999 -9999 -9999 -9999 -9999 -9999 -9999 -9999 -9999 -9999 -9999
1065 1061 1059 1058 1059 1061 1066 1073 1081 1091 1102 1112 1120 1128 1135 1141 1145 1150 1154 1157 1162 1167 1172 1177 1180 1181 1180 1178 1174 1168 1160 1150 1140 1128 1117 1107 1097 1085 1072 1061 1050 1038 1027 1015 1002 989 977 965 952 940 928 915 903 891 878 864 852 840 829 819 809 797 784 771 756 740 722 703 682 661 640 620 600 581 562 543 523 504 485 465 446 428 411 394 379 364 348 331 312 292 272 250 227 203 179 156 136 117 102 87 72 59 46 36 27 19 13 7 3 1 -9999 -9999 -9999 -9999 -9999 -9999 -9999 -9999 -9999 -9999 -9999 -9999 -9999 -9999 -9999 -9999 -9999 -9999 -9999 -9999 -9999 -9999 -9999 -9999 -9999 -9999 -9999 -9999 -9999 -9999 -9999 -9999 -9999 -9999 -9999 -9999 -9999 -9999 -9999 -9999 -9999 -9999 -9999 -9999 -9999 -9999 -9999 -9999 -9999 -9999 -9999 -9999 -9999 -9999 -9999 -9999 -9999 -9999 -9999 -9999 -9999 -9999 -9999 -9999 -9999 -9999 -9999 -9999 -9999 -9999 -9999 -9999 -9999 -9999 -9999 -9999 -9999 -9999 -9999 -9999 -9999
1078 1074 1071 1071 1071 1074 1078 1084 1092 1101 1110 1120 1128 1135 1140 1146 1150 1154 1158 1162 1167 1172 1177 1182 1185 1186 1185 1182 1178 1172 1165 1156 1145 1134 1123 1113 1102 1090 1077 1066 1053 1041 1029 1017 1003 990 978 966 953 940 928 916 905 893 880 868 855 844 833 824 815 803 791 777 762 745 727 707 686 665 645 625 606 587 569 551 532 514 495 476 457 439 421 405 389 373 356 338 317 296 275 252 228 204 180 157 137 119 104 90 76 63 50 39 30 22 15 9 4 1 -9999 -9999 -9999 -9999 -9999 -9999 -9999 -9999 -9999 -9999 -9999 -9999 -9999 -9999 -9999 -9999 -9999 -9999 -9999 -9999 -9999 -9999 -9999 -9999 -9999 -9999 -9999 -9999 -9999 -9999 -9999 -9999 -9999 -9999 -9999 -9999 -9999 -9999 -9999 -9999 -9999 -9999 -9999 -9999 -9999 -9999 -9999 -9999 -9999 -9999 -9999 -9999 -9999 -9999 -9999 -9999 -9999 -9999 -9999 -9999 -9999 -9999 -9999 -9999 -9999 -9999 -9999 -9999 -9999 -9999 -9999 -9999 -9999 -9999 -9999 -9999 -9999 -9999 -9999 -9999 -9999
1089 1086 1084 1083 1083 1085 1089 1094 1101 1110 1119 1128 1135 1142 1147 1151 1155 1159 1163 1167 1172 1177 1182 1187 1190 1191 1190 1187 1183 1177 1170 1161 1151 1140 1129 1119 1107 1095 1083 1070 1057 1044 1032 1020 1006 992 980 967 954 942 930 918 907 896 884 872 860 849 840 831 821 810 798 784 768 751 732 712 690 669 649 630 612 593 576 558 541 524 506 487 468 450 432 415 399 382 364 344 322 300 277 253 229 204 180 158 138 121 106 93 80 67 55 43 33 25 18 11 6 2 1 -9999 -9999 -9999 -9999 -9999 -9999 -9999 -9999 -9999 -9999 -9999 -9999 -9999 -9999 -9999 -9999 -9999 -9999 -9999 -9999 -9999 -9999 -9999 -9999 -9999 -9999 -9999 -9999 -9999 -9999 -9999 -9999 -9999 -9999 -9999 -9999 -9999 -9999 -9999 -9999 -9999 -9999 -9999 -9999 -9999 -9999 -9999 -9999 -9999 -9999 -9999 -9999 -9999 -9999 -9999 -9999 -9999 -9999 -9999 -9999 -9999 -9999 -9999 -9999 -9999 -9999 -9999 -9999 -9999 -9999 -9999 -9999 -9999 -9999 -9999 -9999 -9999 -9999 -9999 -9999
1101 1098 1095 1094 1094 1095 1098 1103 1110 1118 1128 1136 1143 1149 1154 1158 1161 1165 1168 1172 1176 1180 1185 1190 1193 1195 1194 1191 1187 1182 1175 1167 1157 1146 1135 1124 1113 1101 1088 1075 1061 1048 1035 1022 1008 994 981 968 955 943 931 920 909 899 888 877 866 855 846 838 828 817 804 790 774 756 737 716 694 674 654 635 617 599 582 566 549 533 516 498 479 460 443 425 408 390 371 349 326 302 279 254 228 203 180 158 139 123 108 96 84 71 60 48 37 29 21 14 8 4 1 -9999 -9999 -9999 -9999 -9999 -9999 -9999 -9999 -9999 -9999 -9999 -9999 -9999 -9999 -9999 -9999 -9999 -9999 -9999 -9999 -9999 -9999 -9999 -9999 -9999 -9999 -9999 -9999 -9999 -9999 -9999 -9999 -9999 -9999 -9999 -9999 -9999 -9999 -9999 -9999 -9999 -9999 -9999 -9999 -9999 -9999 -9999 -9999 -9999 -9999 -9999 -9999 -9999 -9999 -9999 -9999 -9999 -9999 -9999 -9999 -9999 -9999 -9999 -9999 -9999 -9999 -9999 -9999 -9999 -9999 -9999 -9999 -9999 -9999 -9999 -9999 -9999 -9999 -9999 -9999
1112 1109 1105 1104 1103 1104 1107 1112 1118 1126 1136 1144 1150 1156 1161 1164 1167 1170 1173 1176 1179 1184 1188 1193 1196 1197 1197 1195 1191 1186 1180 1172 1162 1152 1141 1130 1118 1106 1093 1080 1066 1052 1038 1025 1010 996 984 970 957 945 933 923 913 903 893 882 872 862 853 845 835 824 811 796 779 761 742 721 699 678 658 640 623 606 589 573 558 542 525 508 489 470 452 434 416 397 377 353 329 304 280 254 228 203 180 158 140 124 111 99 88 76 65 53 42 33 24 17 10 5 2 -9999 -9999 -9999 -9999 -9999 -9999 -9999 -9999 -9999 -9999 -9999 -9999 -9999 -9999 -9999 -9999 -9999 -9999 -9999 -9999 -9999 -9999 -9999 -9999 -9999 -9999 -9999 -9999 -9999 -9999 -9999 -9999 -9999 -9999 -9999 -9999 -9999 -9999 -9999 -9999 -9999 -9999 -9999 -9999 -9999 -9999 -9999 -9999 -9999 -9999 -9999 -9999 -9999 -9999 -9999 -9999 -9999 -9999 -9999 -9999 -9999 -9999 -9999 -9999 -9999 -9999 -9999 -9999 -9999 -9999 -9999 -9999 -9999 -9999 -9999 -9999 -9999 -9999 -9999 -9999
1124 1120 1117 1115 1114 1115 1117 1121 1127 1135 1144 1151 1157 1163 1167 1170 1173 1175 1177 1179 1182 1186 1190 1194 1197 1199 1198 1197 1193 1189 1183 1176 1167 1156 1146 1135 1123 1111 1099 1085 1071 1056 1042 1028 1014 1000 987 973 959 947 936 926 916 907 898 888 879 869 861 852 842 831 817 801 784 765 745 724 701 681 661 644 627 611 595 580 565 550 534 517 498 479 460 442 423 403 381 357 331 306 281 255 228 203 180 159 141 126 113 102 91 81 70 58 47 37 28 20 13 7 3 1 -9999 -9999 -9999 -9999 -9999 -9999 -9999 -9999 -9999 -9999 -9999 -9999 -9999 -9999 -9999 -9999 -9999 -9999 -9999 -9999 -9999 -9999 -9999 -9999 -9999 -9999 -9999 -9999 -9999 -9999 -9999 -9999 -9999 -9999 -9999 -9999 -9999 -9999 -9999 -9999 -9999 -9999 -9999 -9999 -9999 -9999 -9999 -9999 -9999 -9999 -9999 -9999 -9999 -9999 -9999 -9999 -9999 -9999 -9999 -9999 -9999 -9999 -9999 -9999 -9999 -9999 -9999 -9999 -9999 -9999 -9999 -9999 -9999 -9999 -9999 -9999 -9999 -9999 -9999
1135 1131 1129 1127 1126 1126 1128 1132 1137 1144 1153 1159 1165 1170 1174 1177 1179 1181 1182 1183 1185 1188 1192 1195 1198 1199 1199 1198 1195 1192 1186 1180 1171 1162 1151 1141 1130 1118 1105 1092 1077 1062 1048 1033 1018 1004 990 976 963 950 939 929 920 912 904 895 886 877 868 859 849 836 821 804 786 767 746 725 703 682 664 647 631 615 599 585 570 556 540 523 504 485 466 447 428 407 385 359 333 308 282 254 228 202 179 158 140 126 113 102 93 83 73 61 50 40 31 22 15 8 4 1 -9999 -9999 -9999 -9999 -9999 -9999 -9999 -9999 -9999 -9999 -9999 -9999 -9999 -9999 -9999 -9999 -9999 -9999 -9999 -9999 -9999 -9999 -9999 -9999 -9999 -9999 -9999 -9999 -9999 -9999 -9999 -9999 -9999 -9999 -9999 -9999 -9999 -9999 -9999 -9999 -9999 -9999 -9999 -9999 -9999 -9999 -9999 -9999 -9999 -9999 -9999 -9999 -9999 -9999 -9999 -9999 -9999 -9999 -9999 -9999 -9999 -9999 -9999 -9999 -9999 -9999 -9999 -9999 -9999 -9999 -9999 -9999 -9999 -9999 -9999 -9999 -9999 -9999 -9999
